# .PCD v0.7 - Point Cloud Data file format
VERSION 0.7
FIELDS x y z
SIZE 4 4 4
TYPE F F F
COUNT 1 1 1
WIDTH 1253
HEIGHT 1
VIEWPOINT 0 0 0 1 0 0 0
POINTS 1253
DATA ascii
0.007493868 0.0085551003 -0.031278562
0.0074085882 0.0086729918 -0.031484585
0.0075542517 0.0084545072 -0.031456791
0.0075676464 0.0084430054 -0.031260353
0.0073970859 0.0086739492 -0.031581346
0.0074689719 0.0085675595 -0.031569891
0.0075437087 0.0084573831 -0.031558387
0.0076309056 0.0083414558 -0.031442415
0.0076376144 0.0083356583 -0.031340864
0.0077161854 0.0082187708 -0.031323612
0.0076433653 0.0083279898 -0.03124214
0.0077094762 0.0082254801 -0.031427078
0.0077219359 0.0082101459 -0.031223018
0.0076203621 0.0083452417 -0.03154593
0.0076989331 0.0082302727 -0.031533469
0.0075734211 0.0084362971 -0.031169347
0.0075092032 0.0085426392 -0.031106085
0.0074996189 0.0085493485 -0.031189427
0.0074287159 0.0086595742 -0.031209555
0.0075820233 0.0084285811 -0.031084042
0.0074383002 0.0086538224 -0.031129088
0.0077276868 0.00820152 -0.031127173
0.0076577188 0.0083127031 -0.031061038
0.0076491167 0.0083203213 -0.031148259
0.0077363136 0.0081928922 -0.031038035
0.0075944834 0.0084228786 -0.031006407
0.0075216638 0.0085378466 -0.031030364
0.0074507608 0.008649989 -0.031055287
0.0077487733 0.008185273 -0.030957572
0.007670179 0.0083059939 -0.030981533
0.0073693143 0.0087621287 -0.031151135
0.0073606884 0.0087669212 -0.03123064
0.0072945538 0.0088713001 -0.031250767
0.0073539787 0.0087716663 -0.031314984
0.007304138 0.008867465 -0.031174138
0.0072878441 0.0088751335 -0.031333197
0.0073827091 0.0087582488 -0.031080209
0.007317557 0.0088646384 -0.031105127
0.0072418614 0.0089690648 -0.031198099
0.0072313189 0.0089729447 -0.031271853
0.0072246091 0.008975774 -0.031351406
0.0072552799 0.0089671463 -0.031131007
0.007280177 0.0088780569 -0.031420369
0.0073386435 0.0087783756 -0.031498004
0.0073472694 0.0087754996 -0.031405035
0.0072725331 0.0088799726 -0.031511422
0.0072083152 0.0089796064 -0.031524841
0.0072169411 0.0089786472 -0.031436663
0.0072600725 0.0088799726 -0.031603388
0.0073271417 0.0087783756 -0.031592894
0.007195855 0.0089786472 -0.031614892
0.0078340536 -0.018935692 -0.029864192
0.0082633281 -0.018946236 -0.029396601
0.0088737318 -0.018414428 -0.029123489
0.008446373 -0.018396217 -0.029570997
0.0086447047 -0.017778147 -0.029743474
0.0080304919 -0.018389508 -0.030027088
0.0087041305 -0.01896828 -0.028937589
0.0090586692 -0.017795399 -0.029306509
0.0082441829 -0.017771438 -0.030190028
0.0074354247 -0.019863302 -0.029482819
0.0078934543 -0.019885298 -0.02898743
0.0085364217 -0.019466542 -0.028732527
0.0080812676 -0.019437836 -0.029204957
0.0076376144 -0.019423459 -0.029685006
0.0083629861 -0.019919803 -0.028500672
0.0091506587 -0.019007578 -0.028499663
0.0097466847 -0.018503565 -0.028293639
0.0093078241 -0.018449891 -0.028698023
0.009479342 -0.017828945 -0.028890628
0.0096020028 -0.019066045 -0.028082874
0.0099057658 -0.017880704 -0.028497797
0.0088363755 -0.019973479 -0.02803399
0.0094592152 -0.019576767 -0.027850013
0.0089963917 -0.019512549 -0.028280221
0.0093125915 -0.020045362 -0.027588397
0.0092723602 -0.017100699 -0.029501028
0.0091477828 -0.016290981 -0.030145936
0.0088737318 -0.017080572 -0.02992937
0.0084875878 -0.017070027 -0.030368254
0.0095310751 -0.016320694 -0.029723346
0.0087769497 -0.016271811 -0.03057811
0.010093555 -0.017190747 -0.028709523
0.0096795913 -0.017137073 -0.029093776
0.0099229952 -0.016363826 -0.029322803
0.010323565 -0.01642416 -0.02894526
0.0098473001 -0.015444842 -0.029989753
0.0094812596 -0.015399843 -0.030407503
0.0098683853 -0.014419565 -0.030710332
0.0091276793 -0.015364379 -0.030834887
0.010215257 -0.014484693 -0.03029637
0.009533952 -0.014362056 -0.03113484
0.010608135 -0.015574236 -0.029221252
0.010222926 -0.015501392 -0.029594
0.010573654 -0.014561371 -0.02990349
0.010941612 -0.014650461 -0.029533617
0.0084223878 -0.016257435 -0.031009283
0.0081176898 -0.017066192 -0.030806135
0.0077679185 -0.017063318 -0.031229682
0.0078589497 -0.017772444 -0.030634612
0.0080889352 -0.016245933 -0.031428039
0.0074948263 -0.017774312 -0.031065829
0.0092158336 -0.014309341 -0.031558387
0.0084731868 -0.015305912 -0.031675272
0.0087903682 -0.015334666 -0.03126131
0.0089159049 -0.0142595 -0.031968471
0.007778462 -0.016230598 -0.031820916
0.0074430928 -0.017057568 -0.031628311
0.0071450802 -0.017047983 -0.031997226
0.0071575399 -0.017773353 -0.031470209
0.0074929097 -0.016211476 -0.032185994
0.0068461085 -0.017768562 -0.031845834
0.0086379955 -0.014208701 -0.032354642
0.007907832 -0.015242653 -0.032426525
0.0081790071 -0.015275241 -0.032065276
0.0083831381 -0.014157949 -0.032714017
0.0072543221 -0.018393341 -0.030920189
0.0074210479 -0.018933823 -0.030328956
0.0076318635 -0.018390466 -0.030481305
0.0070300875 -0.018934734 -0.03077738
0.0065806839 -0.018389508 -0.03171457
0.0066669225 -0.018932818 -0.031199012
0.0069035934 -0.018393341 -0.031332236
0.0063324873 -0.018928982 -0.031589013
0.006805853 -0.019412916 -0.030622154
0.0069936658 -0.019849883 -0.029972501
0.0072102323 -0.019415792 -0.03016223
0.0065758913 -0.019841257 -0.030445844
0.006084315 -0.019401416 -0.031453915
0.006186848 -0.01983263 -0.030889519
0.0064302278 -0.019408124 -0.031054329
0.0058284514 -0.019822087 -0.031299651
0.010240178 0.0045841979 -0.030484181
0.010229634 0.0046224892 -0.030635573
0.010333125 0.0044902693 -0.030755378
0.010346544 0.0044509722 -0.030597232
0.010465347 0.00427562 -0.030557983
0.010358046 0.0044117216 -0.030442968
0.010216216 0.0046589598 -0.030791804
0.010450993 0.0043158736 -0.03071896
0.010478789 0.0042354101 -0.0304018
0.010200904 0.0046943743 -0.030948944
0.010315873 0.0045266906 -0.030915398
0.010433741 0.0043542143 -0.030881852
0.010574589 0.0041338131 -0.03068158
0.010589948 0.00409164 -0.030518688
0.010719294 0.003899036 -0.030477472
0.010603342 0.0040495163 -0.03035963
0.010702999 0.0039421665 -0.030644197
0.010734629 0.0038549937 -0.030316494
0.010555442 0.0041731102 -0.030847345
0.010682871 0.0039824229 -0.030811884
0.010491225 0.0041951556 -0.030253239
0.010384859 0.0043369606 -0.030159354
0.010370506 0.0043733343 -0.03029637
0.010251679 0.0045468174 -0.030339498
0.010506561 0.0041577751 -0.030114308
0.010265097 0.0045113554 -0.030205362
0.010749006 0.0038118614 -0.03016223
0.010634013 0.0039690025 -0.030067343
0.01061772 0.0040082997 -0.030208189
0.010766234 0.0037716068 -0.030019466
0.01052573 0.0041242279 -0.029987838
0.010403094 0.0043043727 -0.03003576
0.010283308 0.0044797743 -0.03008268
0.010787321 0.003736143 -0.029889114
0.010654117 0.0039344979 -0.029938955
0.010145313 0.0046857484 -0.030250363
0.010132852 0.0047202529 -0.030382633
0.010010216 0.0048975218 -0.030426674
0.010121375 0.0047557177 -0.030525394
0.010021694 0.0048649367 -0.03029637
0.0099996496 0.0049320292 -0.03056661
0.010162565 0.0046560839 -0.030129641
0.010037988 0.0048352713 -0.030178525
0.0098923482 0.0050517898 -0.030344293
0.0098808464 0.0050834185 -0.030472681
0.0097457012 0.0052770311 -0.030519642
0.0098712612 0.0051160073 -0.030609693
0.009756268 0.0052473163 -0.030394133
0.0097361412 0.0053095696 -0.030654743
0.0099086175 0.005024042 -0.030228365
0.0097725624 0.0052204803 -0.030280076
0.0099900877 0.0049674911 -0.030713208
0.01009933 0.0048285127 -0.030828178
0.010111767 0.0047921389 -0.03067391
0.0099785859 0.0050019957 -0.0308646
0.0097284978 0.0053412011 -0.030795638
0.0098520927 0.0051830523 -0.030902937
0.0098626344 0.0051505119 -0.030754421
0.0097179301 0.0053728297 -0.030941278
0.00996421 0.0050336262 -0.031016994
0.010084929 0.0048621073 -0.030983403
0.0097045116 0.005401535 -0.031088833
0.009837715 0.0052137244 -0.031052411
0.013098604 0.001357791 -0.029667754
0.013248078 0.0011000102 -0.029657211
0.013427264 0.00091224676 -0.029844068
0.013266289 0.0011987323 -0.029848907
0.013275873 0.0012964485 -0.030048221
0.013119666 0.0014545973 -0.029856529
0.013411928 0.00081064785 -0.029650506
0.013433015 0.0010118792 -0.030045345
0.013132127 0.0015494386 -0.030053925
0.01359593 0.0004819883 -0.029646717
0.013804831 0.00021845661 -0.029843155
0.013606474 0.00058545545 -0.029842198
0.013607409 0.00068897055 -0.030046258
0.013800038 0.00011115568 -0.02964576
0.013800972 0.00032479828 -0.03004913
0.013428222 0.0011077262 -0.030249406
0.013274915 0.0013894206 -0.030250363
0.013135002 0.0016404921 -0.030254196
0.013786619 0.00042735552 -0.03025803
0.013597824 0.00078764511 -0.030252278
0.012997005 0.0017813398 -0.03006351
0.012847533 0.0019097747 -0.029885281
0.012981694 0.0016883686 -0.029868986
0.012958691 0.0015935283 -0.029682133
0.012864784 0.0020007817 -0.030077882
0.012822611 0.0018168027 -0.0297013
0.012871494 0.0020879544 -0.030274324
0.013001823 0.0018704776 -0.030262824
0.012731605 0.0022163913 -0.030096095
0.012576357 0.0023428611 -0.029930327
0.012713394 0.0021272516 -0.029905409
0.012685598 0.0020362465 -0.029723346
0.012596484 0.0024310406 -0.03011718
0.012547602 0.0022537708 -0.029751141
0.012606069 0.0025143791 -0.03030787
0.012740208 0.0023016939 -0.030289661
0.012790048 0.0017257975 -0.029529784
0.012928044 0.001501563 -0.029508695
0.012890664 0.0014153002 -0.029354431
0.013069825 0.001263909 -0.029492404
0.012751733 0.0016414504 -0.029377434
0.013035344 0.0011767368 -0.029336222
0.012512139 0.0021665506 -0.029585376
0.012652052 0.0019471077 -0.029555663
0.012611796 0.0018637683 -0.029404271
0.012470949 0.0020850804 -0.02943686
0.012708577 0.0015666904 -0.029247131
0.012848491 0.0013396284 -0.029223118
0.012995113 0.0010991003 -0.029202081
0.012424966 0.0020122835 -0.029311299
0.012567731 0.0017899666 -0.029276796
0.013189611 0.00091507332 -0.029320884
0.013389883 0.00071293209 -0.029471315
0.013222199 0.0010042121 -0.029479943
0.013360195 0.00062187761 -0.029310342
0.013324732 0.00054141413 -0.029172368
0.013151295 0.00083652698 -0.029185787
0.013550882 0.00028842455 -0.029301714
0.01378566 7.6405704e-06 -0.029460773
0.013576762 0.00038134912 -0.029464606
0.013764573 -8.8158995e-05 -0.029295005
0.01373582 -0.00017250422 -0.029153198
0.013518294 0.00020599598 -0.029161826
0.0052353009 -0.017615253 -0.034205973
0.0048960978 -0.018257286 -0.034102459
0.0045377249 -0.018775675 -0.033977956
0.0048558419 -0.018228531 -0.034068961
0.0048443642 -0.018208403 -0.034009535
0.0051941103 -0.017586499 -0.034170508
0.0045760404 -0.018804429 -0.034009535
0.0045281406 -0.018756505 -0.0339204
0.0051797335 -0.01756642 -0.034111086
0.0053062276 -0.017654549 -0.034213692
0.0050656991 -0.018340625 -0.034082379
0.0049650837 -0.018294666 -0.034107253
0.0046440912 -0.018840851 -0.034012411
0.0054068435 -0.017702475 -0.034191597
0.0047446829 -0.018885899 -0.033983655
0.0042560063 -0.019276813 -0.033915654
0.0038947342 -0.019665856 -0.033781465
0.0042195842 -0.019249065 -0.033885892
0.0042119166 -0.019229895 -0.033829343
0.003930198 -0.019693699 -0.033809263
0.003889007 -0.019647693 -0.033725925
0.0044246493 -0.019358281 -0.033883069
0.0043240339 -0.019314192 -0.033915654
0.0039982256 -0.019730072 -0.033806387
0.004098841 -0.019773206 -0.033769965
0.0051797335 -0.01756642 -0.034111086
0.0048443642 -0.018208403 -0.034009535
0.0045453929 -0.018745963 -0.033840895
0.0048587173 -0.018197861 -0.033929072
0.0048970561 -0.018195944 -0.033830348
0.0051912353 -0.017556835 -0.034029663
0.0045281406 -0.018756505 -0.0339204
0.004586583 -0.018744094 -0.03374121
0.0052257399 -0.017555827 -0.033930942
0.0042119166 -0.019229895 -0.033829343
0.0039110282 -0.019636191 -0.033646371
0.004231086 -0.019219354 -0.033749886
0.0042761103 -0.019217435 -0.033650205
0.003889007 -0.019647693 -0.033725925
0.0039579934 -0.019634275 -0.033545781
0.0046498422 -0.018749796 -0.033627201
0.0049564573 -0.018203612 -0.033716295
0.0050388621 -0.018217988 -0.033586945
0.0052822656 -0.017563544 -0.03381693
0.0047351224 -0.018763216 -0.033495937
0.0053598783 -0.01757979 -0.033688542
0.004027938 -0.019639067 -0.033428848
0.0043422449 -0.019223187 -0.033534229
0.0044323173 -0.019235646 -0.033402011
0.0041208859 -0.019651528 -0.033294708
0.0055917809 -0.016801702 -0.034057412
0.0059875338 -0.015913438 -0.034323819
0.0055611096 -0.016801702 -0.034157138
0.0055534416 -0.016811287 -0.034238562
0.0060143704 -0.015915357 -0.034225143
0.0059836996 -0.015921105 -0.034405287
0.0057172924 -0.016829498 -0.033815973
0.0056444723 -0.016811287 -0.033944357
0.0060622701 -0.015926857 -0.034112096
0.0061312565 -0.015947944 -0.033984616
0.0065126321 -0.014876612 -0.034447461
0.0064906115 -0.014871819 -0.034546137
0.0070617166 -0.013697021 -0.034816381
0.0064906115 -0.014878529 -0.034627561
0.0070780106 -0.01370373 -0.034718614
0.0070665092 -0.013700854 -0.034896888
0.0066180401 -0.01491495 -0.034208849
0.0065548052 -0.014890988 -0.034335323
0.0071153673 -0.013721941 -0.034607481
0.007171893 -0.013750695 -0.034481917
0.0059836996 -0.015921105 -0.034405287
0.0060038036 -0.015940275 -0.034467589
0.0056138257 -0.016860168 -0.03433628
0.0055706943 -0.016830456 -0.034298949
0.0055534416 -0.016811287 -0.034238562
0.0060507688 -0.015969988 -0.034504972
0.0070665092 -0.013700854 -0.034896888
0.0070942808 -0.013718107 -0.034957226
0.0065634316 -0.014926452 -0.034726281
0.0065145493 -0.014896739 -0.03468895
0.0064906115 -0.014878529 -0.034627561
0.0071460381 -0.013746861 -0.034994606
0.0061245472 -0.016011156 -0.034515515
0.0056866449 -0.016900424 -0.034345865
0.0057882196 -0.016949307 -0.034324776
0.006226121 -0.016061954 -0.034497302
0.0072236508 -0.013789034 -0.03500611
0.0066391267 -0.014967666 -0.034737833
0.0067416593 -0.015020383 -0.03471962
0.0073261829 -0.013842709 -0.034987848
0.0080774333 0.0076860059 -0.031136759
0.0080716824 0.0076994235 -0.031245973
0.0081694229 0.0075623617 -0.031336073
0.0081761321 0.0075499034 -0.031222016
0.0082882494 0.0073879696 -0.031195175
0.0081809247 0.0075355256 -0.031110879
0.0080659324 0.0077099679 -0.031358115
0.0082815401 0.0074023446 -0.031311151
0.008293042 0.0073735919 -0.031082124
0.0080563715 0.0077195037 -0.031471167
0.0081598377 0.0075719468 -0.031452
0.008271955 0.0074138483 -0.031429954
0.0084032426 0.0072298683 -0.031283356
0.0084099518 0.0072135739 -0.031164553
0.0085402559 0.0070277266 -0.031131007
0.0084147444 0.0071972804 -0.031049535
0.0085345283 0.0070439735 -0.031252682
0.0085460069 0.007009469 -0.031013116
0.0083936574 0.0072423294 -0.031404074
0.0085239615 0.0070593553 -0.03137628
0.0082987929 0.007357345 -0.030973818
0.0081943432 0.0075077303 -0.03090677
0.0081857173 0.0075211478 -0.031005446
0.0080822259 0.0076735448 -0.031033289
0.0083064605 0.0073429197 -0.030874185
0.0080898935 0.0076610856 -0.030937444
0.0085517811 0.006991256 -0.030901022
0.008429097 0.0071646916 -0.03083685
0.0084204953 0.0071800761 -0.030939359
0.0085603828 0.0069730459 -0.030795638
0.0083189206 0.0073295021 -0.030782219
0.0082068034 0.0074953167 -0.030817684
0.0081023537 0.0076495847 -0.030849263
0.0085728681 0.0069577582 -0.030700747
0.0084415572 0.0071503147 -0.030742921
0.0079940706 0.0078038499 -0.030965239
0.0079864021 0.0078153517 -0.03105912
0.0078953719 0.0079495376 -0.031083081
0.0079806512 0.00782781 -0.03116072
0.0079030395 0.007938995 -0.030990113
0.007889621 0.0079609919 -0.031182718
0.0080065308 0.0077942647 -0.030878976
0.0079154996 0.0079303198 -0.030905813
0.0078177592 0.0080682915 -0.031015031
0.0078091333 0.0080778766 -0.031106085
0.0078033824 0.0080884183 -0.031203847
0.0078302193 0.0080606723 -0.03093265
0.0078848284 0.0079715336 -0.03128719
0.0079691745 0.007848897 -0.031377286
0.0079758596 0.0078392643 -0.031268019
0.0078781191 0.0079802088 -0.03139545
0.0077918805 0.008105672 -0.031411745
0.0077985902 0.0080970936 -0.03130636
0.007868534 0.0079868706 -0.031504713
0.0079595894 0.0078565655 -0.03148938
0.0077822963 0.0081114713 -0.03152005
0.015378234 -0.020954713 -0.023735341
0.015853541 -0.021137733 -0.023353007
0.016445708 -0.020852204 -0.023239955
0.015993427 -0.02066051 -0.023604989
0.016142903 -0.020147871 -0.023834016
0.015510455 -0.020459328 -0.023995038
0.016298151 -0.021310212 -0.022995595
0.016603831 -0.020359647 -0.023460306
0.015652284 -0.019924596 -0.024232645
0.015143456 -0.021871731 -0.023088515
0.015605344 -0.02202408 -0.022714809
0.016162071 -0.021745261 -0.022706185
0.015725104 -0.021590037 -0.023057844
0.01525749 -0.021424269 -0.023434427
0.016036559 -0.022166893 -0.022367936
0.016702531 -0.021469269 -0.022674553
0.016858689 -0.021029474 -0.022912208
0.017023522 -0.020556085 -0.023124941
0.016428456 -0.022297198 -0.022056483
0.016559765 -0.021889944 -0.022390939
0.016767683 -0.019818254 -0.023678791
0.016301027 -0.019585393 -0.024060167
0.016467752 -0.018964447 -0.024302613
0.015805617 -0.01934199 -0.024466462
0.016935367 -0.019216478 -0.023914527
0.015970426 -0.018700914 -0.024715621
0.017193148 -0.020033862 -0.023335755
0.017362749 -0.019449338 -0.023565739
0.017104033 -0.018538982 -0.024189562
0.016640229 -0.018270705 -0.024581481
0.016813664 -0.017508913 -0.024896722
0.016147718 -0.017988961 -0.024998274
0.017268844 -0.017792523 -0.024503846
0.016330715 -0.017212793 -0.025314521
0.017529476 -0.018789094 -0.023836892
0.017686641 -0.018055096 -0.024150264
0.015455845 -0.01843264 -0.025139168
0.014768813 -0.018845644 -0.025298227
0.015291036 -0.019093793 -0.024884261
0.015142498 -0.019696575 -0.024642773
0.014932663 -0.018166231 -0.025557876
0.014623149 -0.019468509 -0.025050987
0.015831495 -0.016911928 -0.025741901
0.015120476 -0.017419774 -0.025847286
0.015636973 -0.017703433 -0.025424697
0.015326476 -0.016613889 -0.0261654
0.01441425 -0.017908499 -0.025958467
0.01373582 -0.018373214 -0.026073437
0.014248483 -0.018604156 -0.02569494
0.014106676 -0.019243315 -0.025442909
0.013903528 -0.01766222 -0.026338886
0.013594949 -0.019026749 -0.025819492
0.014825338 -0.016327403 -0.026568823
0.014103778 -0.016887967 -0.026632082
0.01460779 -0.017146656 -0.026249748
0.01433278 -0.016056202 -0.026951157
0.014494738 -0.020040572 -0.024798959
0.015007401 -0.020251341 -0.0243975
0.014882823 -0.020765942 -0.024131093
0.014376869 -0.020572379 -0.024526849
0.013473271 -0.019629482 -0.025561709
0.013982099 -0.01983263 -0.025188003
0.013869958 -0.020378817 -0.024912059
0.013364987 -0.020187169 -0.025285766
0.014268586 -0.0210716 -0.024218269
0.014768813 -0.021250833 -0.023825441
0.01466053 -0.021711715 -0.023476601
0.014164162 -0.02154403 -0.023868524
0.013263413 -0.020707477 -0.024976227
0.013765533 -0.020889537 -0.02460156
0.013664893 -0.021371553 -0.024252772
0.013163756 -0.021197159 -0.024629354
0.013314212 -0.019124463 -0.027401544
0.013143629 -0.019743493 -0.027109258
0.012507372 -0.020145956 -0.027161974
0.012659743 -0.019571016 -0.027468637
0.01218923 -0.019415792 -0.027808797
0.012833155 -0.018947195 -0.027757041
0.012993173 -0.020313639 -0.02679785
0.012032089 -0.019990731 -0.02750985
0.012366499 -0.018788137 -0.028090492
0.013494333 -0.020492826 -0.026404973
0.013644789 -0.019930348 -0.026719257
0.013813432 -0.019319993 -0.027012501
0.012853283 -0.020843532 -0.026455771
0.01222661 -0.021174155 -0.026461523
0.012364582 -0.020676805 -0.026827566
0.011885467 -0.020521581 -0.027184978
0.012719145 -0.021339923 -0.026082065
0.011741743 -0.021016056 -0.026829481
0.013224116 -0.021510484 -0.025679603
0.013356362 -0.021017015 -0.026059061
0.011566367 -0.019850843 -0.027852889
0.0117283 -0.019276813 -0.028141294
0.011273171 -0.019158969 -0.028479539
0.011911321 -0.018649206 -0.02841441
0.011103544 -0.019729115 -0.028202638
0.011463858 -0.018531362 -0.02874307
0.011261644 -0.020869408 -0.027195521
0.0114121 -0.020378817 -0.027539518
0.010942545 -0.020253304 -0.027901772
0.010783487 -0.020738147 -0.027572103
0.010641658 -0.019628525 -0.02857155
0.010819909 -0.019061252 -0.028835084
0.010368589 -0.018984575 -0.029209748
0.011019222 -0.018436473 -0.029088024
0.010179818 -0.019547053 -0.028957717
0.010577488 -0.018360753 -0.029450279
0.010302454 -0.020625096 -0.027968816
0.010471097 -0.020146914 -0.028284058
0.0099996496 -0.020058734 -0.02868465
0.0098204864 -0.020530205 -0.028385654
0.011686152 -0.017839488 -0.029003724
0.012382769 -0.017198414 -0.028957717
0.01212597 -0.017959248 -0.028682686
0.012574439 -0.018101104 -0.028365526
0.011952534 -0.017073862 -0.029272001
0.012822611 -0.017345972 -0.028645355
0.010820867 -0.017666053 -0.029692676
0.01152901 -0.016972264 -0.029601667
0.011251125 -0.017742731 -0.029340055
0.011110255 -0.016888924 -0.029947579
0.01227451 -0.016225806 -0.029560454
0.013049722 -0.015449635 -0.029555663
0.012693266 -0.016359033 -0.029248998
0.013121583 -0.016514257 -0.028939512
0.012645342 -0.015304954 -0.029864192
0.013464645 -0.015616409 -0.029246122
0.011459042 -0.016020741 -0.030227359
0.012249589 -0.015180352 -0.03018811
0.011863422 -0.016114671 -0.029885281
0.011860546 -0.015071134 -0.03052827
0.013274915 -0.017515622 -0.02832048
0.013034387 -0.018263996 -0.028036866
0.013511609 -0.018448934 -0.027685158
0.013745405 -0.017709184 -0.027970735
0.01389392 -0.015806139 -0.028925128
0.013564302 -0.016693443 -0.0286166
0.014023289 -0.016897552 -0.028267764
0.014339514 -0.016020741 -0.028576344
0.014236022 -0.01792671 -0.027581688
0.014007978 -0.018654957 -0.027296115
0.014806193 -0.016263187 -0.028188258
0.014504323 -0.017127536 -0.02787872
0.0097054699 -0.018262079 -0.030231241
0.0094726328 -0.018882066 -0.030013718
0.008804746 -0.019402372 -0.030233111
0.0090289563 -0.018853312 -0.030444883
0.0085920133 -0.018835101 -0.030885685
0.0092742778 -0.018234283 -0.030651867
0.0092618167 -0.019434961 -0.029788524
0.0083553419 -0.019380327 -0.030686371
0.0088497698 -0.018216072 -0.031081166
0.0097198468 -0.019482836 -0.029364012
0.0099191852 -0.01892424 -0.029601667
0.010139562 -0.018303294 -0.029831607
0.0090567525 -0.019934181 -0.029546078
0.0083706547 -0.02034431 -0.029753059
0.0085871965 -0.019895889 -0.030005042
0.008124399 -0.019868094 -0.030472681
0.0088526448 -0.020390317 -0.029277753
0.0078934543 -0.020309806 -0.030236945
0.0093365544 -0.020451661 -0.028821666
0.0095282011 -0.019987855 -0.029105276
0.007916458 -0.019363075 -0.031136759
0.007755483 -0.018806346 -0.03174812
0.0081656128 -0.018820725 -0.031323612
0.0084367888 -0.018202655 -0.031508546
0.0074929097 -0.019345824 -0.031573724
0.0080381604 -0.018187318 -0.031923469
0.0074277576 -0.02028206 -0.030716084
0.0072370693 -0.019824006 -0.031386871
0.0076730782 -0.01984605 -0.030936483
0.0069792881 -0.020255173 -0.031180844
0.007090447 -0.019324737 -0.031984814
0.0069946237 -0.018759381 -0.032520454
0.0073635397 -0.018786218 -0.032148663
0.0076587009 -0.018166231 -0.032314431
0.006710988 -0.019296989 -0.032367099
0.0072993464 -0.018137477 -0.032676637
0.0065528881 -0.020225508 -0.031618774
0.0064321449 -0.019769371 -0.032204207
0.0068221469 -0.019799083 -0.031810373
0.0061513842 -0.020191003 -0.032025021
0.0083591528 -0.017472491 -0.032111283
0.008744386 -0.017492618 -0.031704985
0.0091036931 -0.016675234 -0.031924427
0.0091439486 -0.017510828 -0.031286232
0.0087319259 -0.016646478 -0.032324016
0.0094889272 -0.016703028 -0.031512383
0.007642407 -0.017414022 -0.032849114
0.0079902364 -0.017446611 -0.032494575
0.0083764289 -0.016611014 -0.032701559
0.0080400771 -0.01656889 -0.033050343
0.0091727041 -0.015691122 -0.032574128
0.0095301177 -0.01573617 -0.032179285
0.010015967 -0.014687842 -0.032464866
0.0098990574 -0.015779253 -0.031772032
0.0096757812 -0.014621755 -0.032857742
0.010368589 -0.014753018 -0.032061443
0.0085086264 -0.015584779 -0.033292789
0.008831583 -0.015640322 -0.032946881
0.0093499729 -0.014551787 -0.033227611
0.0090394998 -0.014478942 -0.033569694
0.0098846564 -0.016734611 -0.031098418
0.009972835 -0.017562538 -0.030454468
0.0095550381 -0.017532825 -0.030865557
0.01028906 -0.016772948 -0.030694999
0.010730795 -0.014821069 -0.031656105
0.010667536 -0.015879892 -0.030965239
0.010279475 -0.015826218 -0.031363867
0.011101628 -0.014894824 -0.031260353
0.010697273 -0.016823748 -0.030311707
0.010394444 -0.017606627 -0.030064467
0.011478212 -0.014977252 -0.030884728
0.011060414 -0.015943151 -0.030586738
0.0054719956 -0.019112004 -0.033504564
0.0052400935 -0.019052627 -0.03368279
0.0053608366 -0.018450849 -0.033928066
0.005556317 -0.018511187 -0.033795893
0.0058936272 -0.017878786 -0.033918481
0.0057843854 -0.018572528 -0.033624329
0.0050417371 -0.018993201 -0.033820767
0.0057000639 -0.017815527 -0.034045909
0.006117838 -0.017941996 -0.033751752
0.0048491326 -0.019995522 -0.033242948
0.0046086279 -0.019936096 -0.033436514
0.0047245794 -0.019463714 -0.033710588
0.0049267691 -0.019522134 -0.03356586
0.0051624808 -0.019580599 -0.033380922
0.0044035628 -0.019877631 -0.033587903
0.0048769284 -0.018937608 -0.0339204
0.0051969858 -0.018393341 -0.034022953
0.0055381302 -0.017756149 -0.034136053
0.0042339615 -0.019823045 -0.033698082
0.0045578289 -0.019408122 -0.033815973
0.0060795224 -0.017067151 -0.034185845
0.0062702107 -0.017133286 -0.034062251
0.00670332 -0.016255517 -0.034241389
0.0064896289 -0.01720033 -0.033900317
0.0065155076 -0.016185597 -0.03436216
0.0069198874 -0.016327403 -0.034083292
0.0063564493 -0.016120419 -0.034446504
0.0059185238 -0.017004851 -0.034273021
0.0070281704 -0.015149728 -0.034587353
0.0077899634 -0.014060186 -0.034737833
0.0072131078 -0.015225399 -0.034468498
0.0074239234 -0.015303035 -0.034312367
0.0076098191 -0.013979722 -0.034855675
0.0079959873 -0.01414549 -0.034582559
0.0074555534 -0.013906878 -0.034939013
0.0068710288 -0.015081677 -0.034670737
0.0071623325 -0.016398329 -0.033885892
0.0070137936 -0.017323975 -0.033456638
0.0067387838 -0.017264549 -0.033699039
0.0063708262 -0.01800238 -0.033544771
0.0074306331 -0.016463459 -0.033647332
0.006653504 -0.018057015 -0.033296622
0.0082240561 -0.01423271 -0.034388993
0.007659636 -0.015381631 -0.03411784
0.0079202922 -0.015455385 -0.033882104
0.0084760617 -0.014318924 -0.034155179
0.007723853 -0.016520008 -0.033367503
0.0073165987 -0.017372858 -0.033172023
0.0069639771 -0.018101104 -0.033006258
0.0087481961 -0.014400395 -0.03388115
0.0082039274 -0.015523437 -0.033606116
0.006331529 -0.018682752 -0.033155728
0.0060421424 -0.018630994 -0.033410635
0.0057355035 -0.019168554 -0.033284165
0.006030641 -0.019220311 -0.033021592
0.0066496697 -0.018724926 -0.032857742
0.0063564493 -0.019262485 -0.032714017
0.0057335864 -0.01968886 -0.032879785
0.0054317638 -0.019637151 -0.033151895
0.0051251249 -0.020053033 -0.033006258
0.005433681 -0.020105701 -0.032723602
0.0060680211 -0.019732948 -0.03256258
0.0057776761 -0.020151706 -0.032394893
0.01143127 -0.019499131 -0.0266455
0.011898885 -0.019654404 -0.026320629
0.01248245 -0.019249067 -0.026261251
0.012007168 -0.019078504 -0.026585117
0.012128847 -0.018452767 -0.026835233
0.011542429 -0.018923232 -0.026901364
0.012376084 -0.019822087 -0.025991008
0.012602235 -0.01862812 -0.026516154
0.011668899 -0.018296584 -0.027144723
0.011213745 -0.020522539 -0.026045643
0.011690944 -0.020681597 -0.025700688
0.012275469 -0.020352937 -0.025689185
0.011795394 -0.020186212 -0.02602743
0.011323946 -0.020030029 -0.026361842
0.012174852 -0.020849328 -0.025353815
0.012866678 -0.020000316 -0.025645096
0.012972109 -0.019434001 -0.02592013
0.013091895 -0.018820725 -0.026176907
0.012666453 -0.021021806 -0.024996404
0.012766086 -0.02052829 -0.025338482
0.012745024 -0.017954458 -0.026769098
0.01227451 -0.017773353 -0.027084384
0.012455613 -0.017032646 -0.02734787
0.011820314 -0.017612379 -0.027388126
0.012919394 -0.017221417 -0.027035505
0.012007168 -0.01686592 -0.027647823
0.013232742 -0.018155688 -0.02643181
0.013404285 -0.017432235 -0.026699178
0.01313596 -0.01642416 -0.027328704
0.012679847 -0.016226765 -0.027640156
0.012944314 -0.01536342 -0.027959231
0.012241946 -0.016052369 -0.027938146
0.01338799 -0.015570402 -0.027647823
0.012517913 -0.015179441 -0.028256308
0.013612201 -0.016645521 -0.026992373
0.013851771 -0.015802257 -0.027311448
0.011573076 -0.016722199 -0.027947731
0.010943528 -0.017356563 -0.028009072
0.011376637 -0.017473448 -0.027692873
0.011219496 -0.018159524 -0.027455218
0.011148593 -0.01660143 -0.028258178
0.010776801 -0.018044554 -0.027779084
0.012106801 -0.015017508 -0.028552383
0.011405392 -0.015771633 -0.028541837
0.011817439 -0.015900979 -0.028234262
0.011708173 -0.014876612 -0.028857127
0.010731753 -0.016502757 -0.02859072
0.010515187 -0.017262632 -0.028347317
0.010338875 -0.017951582 -0.028126918
0.011320111 -0.014754934 -0.029184829
0.011001971 -0.015663326 -0.028870549
0.010637847 -0.018670291 -0.027554855
0.011087275 -0.018787177 -0.0272214
0.010970342 -0.019361157 -0.026975121
0.010513294 -0.019241396 -0.02732012
0.010190337 -0.018576361 -0.027912267
0.010056199 -0.019143634 -0.027689997
0.010391568 -0.019763621 -0.027060427
0.01085633 -0.019888174 -0.026703011
0.010739397 -0.020375941 -0.026399225
0.010266055 -0.020246595 -0.026770055
0.0099249361 -0.019660154 -0.027442757
0.0097888568 -0.020136371 -0.027166765
0.0080036549 0.008858839 -0.031094585
0.0080783917 0.0087515395 -0.031071581
0.0081981774 0.0086758677 -0.031132922
0.0081205647 0.0087850848 -0.03115401
0.008155046 0.0088167153 -0.031241182
0.0080448696 0.0088923872 -0.031174138
0.0081560286 0.0086404039 -0.031049535
0.008232682 0.0087084565 -0.031223018
0.0080783917 0.0089220991 -0.031259391
0.0082345996 0.0085263923 -0.031027488
0.0082777059 0.0085637262 -0.031112794
0.0083131706 0.0085973209 -0.03120476
0.0082585374 0.0087362025 -0.031315945
0.0081790071 0.0088435523 -0.031332236
0.0081023537 0.0089470185 -0.03134853
0.0083390484 0.0086269863 -0.031299651
0.0080036549 0.0090246573 -0.031277604
0.0079001645 0.0090965424 -0.031215306
0.007971067 0.0089959484 -0.031194266
0.0079308357 0.0089642722 -0.031116627
0.0079317931 0.0091233794 -0.031295814
0.0078608664 0.0090668276 -0.031139635
0.0079538152 0.0091463346 -0.031380162
0.0080266586 0.0090486165 -0.031364825
0.0078618256 0.0092191771 -0.031314027
0.0078311777 0.0091932993 -0.031236388
0.0077928388 0.0091655049 -0.031163547
0.0078829117 0.0092402641 -0.031396456
0.0078158425 0.0090351999 -0.031072538
0.0078848284 0.0089316843 -0.031046659
0.0078349877 0.0088990964 -0.030985367
0.0079567134 0.0088253412 -0.03102174
0.0077669607 0.0090045277 -0.031013116
0.0079059154 0.0087917941 -0.030959491
0.0077487733 0.0091348328 -0.031097461
0.0077008503 0.0091051199 -0.031040911
0.0077152271 0.0089748148 -0.030964278
0.0077822963 0.008869431 -0.030935526
0.007853223 0.0087601654 -0.03090677
0.0076500508 0.0090773255 -0.030993991
0.0079796929 0.0086806603 -0.03093265
0.0081071462 0.0086040301 -0.030973818
0.0080314511 0.0087160757 -0.030997828
0.0080553889 0.0085675595 -0.03090677
0.0080007799 0.0085340142 -0.030852139
0.0079260431 0.0086490298 -0.030878976
0.008133024 0.0084516341 -0.030880891
0.0081857173 0.0084890118 -0.030949906
0.0080774333 0.0084171267 -0.030824393
0.0055812374 -0.017627712 -0.033380922
0.0052698059 -0.018262079 -0.033275537
0.0051299166 -0.018832225 -0.032993797
0.0054183207 -0.018290833 -0.03309156
0.0055927387 -0.018318629 -0.032884579
0.0057249838 -0.017658386 -0.033199821
0.0049756267 -0.018805388 -0.03318065
0.0053100614 -0.018859062 -0.032782979
0.0058926689 -0.017689057 -0.032995712
0.0048443642 -0.018782385 -0.033347376
0.0051433118 -0.018238116 -0.03343939
0.0054595349 -0.017601836 -0.033542905
0.0046804897 -0.019275902 -0.033081017
0.0045434758 -0.019716654 -0.032773394
0.0048405067 -0.019301733 -0.032891288
0.0050264257 -0.01932857 -0.032674722
0.0043786424 -0.019691736 -0.032967918
0.0047351224 -0.019743493 -0.032552086
0.0042377948 -0.01966974 -0.033141401
0.0045444104 -0.019253857 -0.033251576
0.0055179782 -0.018883936 -0.032541543
0.0057939701 -0.018345417 -0.032646924
0.0060248901 -0.018366504 -0.032375727
0.0060871905 -0.01771781 -0.032761894
0.0057565896 -0.01890507 -0.032263633
0.0063104667 -0.017741725 -0.032494575
0.0049574156 -0.019769371 -0.032299098
0.0052410513 -0.01935349 -0.03242844
0.0054882895 -0.019375537 -0.032144781
0.0052123219 -0.019791417 -0.032007769
0.0060287481 -0.018919397 -0.031945471
0.0062874635 -0.01838088 -0.032063361
0.0065634316 -0.017758019 -0.032187961
0.0055036247 -0.019808669 -0.031674318
0.0057690502 -0.01939087 -0.031818997
0.006629542 -0.01701156 -0.032637339
0.0067953095 -0.016124256 -0.033078142
0.0064158509 -0.016983813 -0.032900874
0.0062289964 -0.016951226 -0.033130858
0.0070003746 -0.016158711 -0.03281844
0.0066170823 -0.016085915 -0.033306208
0.0072332351 -0.016187467 -0.032519497
0.0068729217 -0.017032646 -0.03233552
0.0074402173 -0.015166023 -0.033052266
0.0072456957 -0.015121933 -0.033309992
0.0077592926 -0.0139941 -0.033590779
0.0070760944 -0.015074968 -0.033536196
0.0079423366 -0.014050601 -0.033334915
0.0075992756 -0.01393659 -0.033814054
0.0076615764 -0.015206231 -0.032756142
0.0081502534 -0.014105234 -0.033040758
0.0064628157 -0.016046619 -0.033505522
0.0059290663 -0.016883172 -0.033511274
0.0060670627 -0.016916718 -0.033333048
0.0063305707 -0.016009286 -0.03368279
0.0074613038 -0.013882006 -0.034010492
0.0068048942 -0.014985877 -0.033908948
0.0069294716 -0.015028962 -0.033733543
0.0073453523 -0.013832116 -0.034184888
0.0062203943 -0.01597574 -0.033841852
0.00581314 -0.016853461 -0.033672247
0.0072485711 -0.013787117 -0.034342032
0.006701427 -0.014947538 -0.034067046
0.010868791 0.0047710044 -0.030230235
0.010988552 0.0045976164 -0.030190028
0.011151445 0.004492186 -0.03029637
0.011029766 0.0046695014 -0.030334707
0.011064272 0.0047394233 -0.030486099
0.010910939 0.0048419312 -0.030372087
0.011110255 0.0044193901 -0.030149769
0.011184033 0.0045640711 -0.030451592
0.010945445 0.0049100304 -0.030520603
0.011238666 0.0042315302 -0.030108556
0.011410184 0.0041117687 -0.030219741
0.011277938 0.0043062894 -0.030258987
0.011310526 0.0043791337 -0.030416179
0.01137091 0.004035091 -0.030066386
0.011440855 0.0041855713 -0.030380715
0.011207994 0.0046301577 -0.030609693
0.01108821 0.0048046 -0.030641325
0.010970342 0.0049741995 -0.030672953
0.011461917 0.0042555397 -0.030545522
0.011332572 0.004447137 -0.030577153
0.010826618 0.0050805425 -0.030555107
0.010668518 0.0051897615 -0.030448716
0.010791156 0.00501345 -0.03040947
0.010749006 0.0049444875 -0.030271448
0.010703981 0.0052549383 -0.030591529
0.010625387 0.0051217591 -0.030312661
0.010729837 0.0053162789 -0.03073813
0.010851515 0.0051427959 -0.030704584
0.010575546 0.0054380056 -0.030628864
0.010403094 0.0055663921 -0.030531149
0.010539149 0.005373789 -0.030488975
0.010495082 0.0053076064 -0.030356754
0.010439491 0.0056286454 -0.030668158
0.010359004 0.0055021755 -0.0304018
0.010466329 0.0056871129 -0.030808099
0.010601426 0.005497383 -0.030772634
0.010575546 0.0050547132 -0.03018811
0.010700123 0.0048764376 -0.030144021
0.010646474 0.0048113083 -0.030030921
0.010820867 0.0047010835 -0.030099928
0.010521896 0.0049914066 -0.030076928
0.010768151 0.0046359096 -0.029984962
0.010308205 0.0054380056 -0.030281994
0.010445219 0.0052415198 -0.030234069
0.010391568 0.0051792171 -0.030125808
0.010254554 0.0053766156 -0.030176606
0.010466329 0.0049338965 -0.029984005
0.01059184 0.0047528418 -0.029935122
0.010713543 0.0045765322 -0.029887196
0.010198005 0.0053220307 -0.030087467
0.010335043 0.0051236758 -0.030034799
0.010888895 0.0044595972 -0.029939912
0.011064272 0.0043465458 -0.030014627
0.010940652 0.0045266906 -0.030057758
0.011012514 0.0042784931 -0.029893905
0.010958863 0.0042172 -0.029792357
0.010834285 0.0043992605 -0.029840235
0.011141883 0.0040888134 -0.029846944
0.011325862 0.0039603775 -0.029925536
0.011191701 0.0041587325 -0.029970583
0.011276022 0.0038894508 -0.029800024
0.01122333 0.0038262382 -0.029693633
0.01108821 0.0040265126 -0.029743474
0.0066822576 0.0099435914 -0.031638853
0.0066822576 0.0099167526 -0.031649396
0.0067062196 0.0098755863 -0.031612065
0.006701427 0.0099014174 -0.031604346
0.0067196144 0.0098794214 -0.031567015
0.0067042792 0.0099225044 -0.031590931
0.0066889431 0.0098851249 -0.031656105
0.006718656 0.0098659545 -0.031582303
0.0067253648 0.0098947082 -0.031548806
0.0067129051 0.0099435914 -0.031575594
0.0066669225 0.0098918322 -0.031708822
0.0066582966 0.0099283047 -0.03170307
0.0066563794 0.0099598859 -0.031694442
0.0066602128 0.0099895969 -0.031683899
0.0067224898 0.0098037012 -0.031650353
0.0067368667 0.0098027438 -0.031599604
0.0067301574 0.0098419935 -0.031569891
0.006718656 0.0098430011 -0.031608183
0.0067023621 0.009846786 -0.031655148
0.0067493268 0.0098027438 -0.031554554
0.0066822576 0.0098506659 -0.031709779
0.00670332 0.0098037012 -0.031708822
0.0067474097 0.0097529013 -0.031643644
0.006761787 0.0097538624 -0.031588055
0.0067732888 0.0097557772 -0.031537302
0.0067291991 0.0097519923 -0.031704985
0.0067694546 0.0098151546 -0.03148267
0.0067464518 0.0098582879 -0.031513341
0.0067378255 0.00984779 -0.03153922
0.0067589115 0.0098075364 -0.031516217
0.0067953095 0.0097644031 -0.031453915
0.0067838319 0.0097586531 -0.031493213
0.0067589115 0.0098707955 -0.03148938
0.0067828493 0.0098238308 -0.031452954
0.0068096868 0.0097711124 -0.031418454
0.0072217337 0.0099685118 -0.031429954
0.0072361105 0.0099809729 -0.031468291
0.0071977717 0.010030812 -0.031526759
0.0071987305 0.010017393 -0.031483628
0.0071632913 0.010043273 -0.03149417
0.0071901046 0.010004885 -0.031450082
0.0072418614 0.0099934302 -0.031514298
0.0071556233 0.010058559 -0.031536344
0.0071661668 0.010026978 -0.031467337
0.0072591142 0.0099235121 -0.031407908
0.0072773248 0.0099368822 -0.031450082
0.0072878441 0.0099493414 -0.031498965
0.007238986 0.010003975 -0.031567972
0.0071901046 0.010041356 -0.03157847
0.0071422048 0.010072025 -0.031587142
0.0072897612 0.0099598859 -0.031555515
0.0070693847 0.010090189 -0.031542093
0.0070894887 0.01006436 -0.031493213
0.0071441219 0.010031721 -0.031458706
0.0071278275 0.010057651 -0.031496089
0.0071124919 0.01007773 -0.031540178
0.0071105747 0.010031721 -0.031451043
0.0070463815 0.010111324 -0.031596728
0.0070942808 0.01009503 -0.031592894
0.0070732189 0.010029804 -0.031444333
0.0070492569 0.010066228 -0.031491295
0.0070243366 0.010096898 -0.031543054
0.0069984575 0.010120859 -0.031600513
0.0071364539 0.0099934302 -0.031412747
0.0071977717 0.0099589266 -0.031400286
0.007168083 0.0099991821 -0.031428039
0.007165208 0.0099493414 -0.031378243
0.0070990734 0.0099876802 -0.031402159
0.0071278275 0.0099387988 -0.031361949
0.0071977717 0.009897586 -0.031345654
0.0072313189 0.0099100936 -0.031372447
0.0071594571 0.0098841637 -0.031324569
0.011606622 0.0025297143 -0.030054931
0.011629602 0.0024769995 -0.029886238
0.01150409 0.0026581492 -0.029773187
0.011481088 0.0027060267 -0.029928412
0.011328713 0.0029379278 -0.02997442
0.011459042 0.0027568247 -0.030095138
0.011654522 0.0024272064 -0.029728137
0.011351741 0.0028910106 -0.029821109
0.01130861 0.0029868102 -0.030138269
0.011800162 0.0022029718 -0.029686924
0.011774308 0.0022537708 -0.029846031
0.011748452 0.0023084031 -0.030017503
0.011683277 0.0023831166 -0.029585376
0.011561599 0.0025776383 -0.029508695
0.011530903 0.0026150197 -0.029632293
0.011376637 0.0028497968 -0.029683091
0.011713947 0.0023447778 -0.029459864
0.011405392 0.0028142845 -0.029560454
0.011861529 0.0021176683 -0.029414814
0.011829899 0.0021569654 -0.029542245
0.011198409 0.0031228652 -0.029870901
0.011177323 0.0031679133 -0.030021336
0.011029766 0.0033921469 -0.030069262
0.011159112 0.003214879 -0.030182358
0.011048936 0.0033490174 -0.029920742
0.011011556 0.0034381533 -0.030227359
0.011250143 0.0030481042 -0.029614128
0.011222372 0.0030826572 -0.029733889
0.011071916 0.0033097668 -0.029786605
0.011098752 0.0032771789 -0.029667754
0.010905189 0.003564626 -0.029970583
0.010887002 0.0036067963 -0.030116223
0.010869726 0.0036508394 -0.030272409
0.010952155 0.0034956634 -0.029721431
0.010926276 0.0035272455 -0.029838316
0.010994303 0.0034850724 -0.030394133
0.01111888 0.0033116359 -0.030526351
0.011139967 0.0032637604 -0.030351959
0.011287523 0.0030376092 -0.030310746
0.010975133 0.0035310779 -0.030565649
0.011265478 0.0030874498 -0.030488014
0.010836204 0.0037409356 -0.030604951
0.010853432 0.0036958884 -0.030436259
0.010952155 0.0035751676 -0.030739084
0.011068105 0.0034026913 -0.030879933
0.011094918 0.0033576423 -0.030702665
0.011239599 0.0031353254 -0.030667201
0.010927234 0.0036182981 -0.030914441
0.011211828 0.0031813318 -0.030847345
0.010791156 0.0038243225 -0.030947987
0.010815117 0.0037840651 -0.03077551
0.01141306 0.0028612986 -0.030450683
0.011437021 0.0028095404 -0.030270491
0.011582661 0.0025833892 -0.030232199
0.011556782 0.0026370641 -0.030415218
0.011355574 0.0029590148 -0.030814808
0.011385263 0.0029111393 -0.03063174
0.011528051 0.002688773 -0.030599199
0.011497381 0.0027386136 -0.030785095
0.011696695 0.0024195388 -0.030382633
0.011723532 0.0023639472 -0.030197695
0.01163346 0.0025249226 -0.030758254
0.011666048 0.0024732137 -0.030570444
0.012033047 0.0035991305 -0.030958526
0.012176771 0.0033768127 -0.030937444
0.012303241 0.0032187123 -0.031105127
0.012162416 0.0034352299 -0.031120464
0.012146099 0.0034927409 -0.031303484
0.012019629 0.003655632 -0.031137716
0.012319558 0.0031583281 -0.030919231
0.012285053 0.0032771789 -0.031291023
0.012004293 0.0037103128 -0.03131786
0.012039755 0.0034706946 -0.030595366
0.012187312 0.0032455493 -0.03056848
0.012329119 0.003092194 -0.030731421
0.012185396 0.0033135526 -0.030753467
0.012039755 0.0035368307 -0.03077738
0.012332977 0.0030222731 -0.030543607
0.012456571 0.0029446371 -0.030902937
0.012439319 0.0030069379 -0.031091709
0.012419215 0.0030673211 -0.03128048
0.012472865 0.002805707 -0.030520603
0.012468073 0.002877593 -0.030712251
0.012268759 0.0033365563 -0.031478833
0.012131746 0.0035502482 -0.03148938
0.012121178 0.003612549 -0.031678148
0.011990873 0.0037668142 -0.031499922
0.012257257 0.0034007756 -0.031671442
0.011982248 0.0038271509 -0.031685818
0.012401004 0.0031286161 -0.031471167
0.012388544 0.0031947503 -0.031666648
0.012254407 0.0034726113 -0.031868838
0.012119285 0.0036824681 -0.031872671
0.012126928 0.003760105 -0.032071985
0.011982248 0.0038952008 -0.031877466
0.012259174 0.0035522124 -0.032071985
0.011991833 0.003970922 -0.032073904
0.012383752 0.0032685064 -0.031866923
0.012386627 0.0033499738 -0.032072946
0.011844251 0.0040399311 -0.031694442
0.011712989 0.0041913204 -0.031525802
0.011850961 0.0039814636 -0.031512383
0.011862487 0.0039268322 -0.031333197
0.011707238 0.0042478237 -0.031704985
0.011723532 0.0041386057 -0.031349491
0.011855778 0.0041798195 -0.032075819
0.011711072 0.0043120412 -0.031888966
0.01184521 0.0041060168 -0.031883217
0.011722574 0.0043838788 -0.032078695
0.011575951 0.004447137 -0.031715531
0.011579785 0.0043915948 -0.03153922
0.011589371 0.0043407939 -0.031366743
0.011594163 0.0045784488 -0.032082528
0.011580768 0.0045094369 -0.031896636
0.011735993 0.0040868474 -0.031176057
0.01187684 0.0038741138 -0.031156886
0.011888341 0.0038185725 -0.030980572
0.011745578 0.0040332219 -0.031002574
0.011599913 0.0042909542 -0.031196136
0.011609498 0.004239196 -0.031025577
0.011750369 0.0039747544 -0.030828178
0.011894117 0.0037591457 -0.030802347
0.011893134 0.0036939718 -0.030624118
0.011748452 0.0039124545 -0.030652825
0.011612373 0.0041826954 -0.030854054
0.011608539 0.0041203946 -0.030682538
0.01190176 0.0043771686 -0.034330528
0.01186438 0.0043177912 -0.03423281
0.011711072 0.0044337194 -0.034091916
0.011753221 0.0045027286 -0.034203097
0.01163921 0.0046895826 -0.034174342
0.011790602 0.0045611486 -0.034299858
0.011824148 0.0042478247 -0.034118805
0.011596079 0.0046224901 -0.034065079
0.011677526 0.0047470927 -0.034268226
0.011931472 0.0040676808 -0.034144681
0.011971705 0.0041386066 -0.03426056
0.012007168 0.0041989433 -0.034361202
0.011777182 0.0041673612 -0.03398845
0.011611415 0.0042650765 -0.033819806
0.011663172 0.0043542152 -0.033963528
0.011547222 0.0045439452 -0.03393957
0.011726407 0.0040763058 -0.033841852
0.011493547 0.0044557657 -0.033798721
0.011836608 0.0038923258 -0.033862937
0.011886424 0.0039852504 -0.034012411
0.011480127 0.0048093926 -0.034038242
0.011524217 0.0048754793 -0.034144681
0.011410184 0.0050565833 -0.034116883
0.011563491 0.0049320301 -0.034237605
0.011366094 0.0049914075 -0.034012411
0.011451398 0.0051121749 -0.034206931
0.01137568 0.0046464512 -0.033777632
0.011430312 0.004732715 -0.033914648
0.011315319 0.0049166931 -0.033891689
0.01125877 0.0048314361 -0.033756547
0.01125496 0.0051657995 -0.033987489
0.011300943 0.0052300664 -0.03408904
0.011341174 0.0052846512 -0.034178182
0.011145694 0.0050087068 -0.033737425
0.011203201 0.0050919978 -0.033869646
0.011488779 0.0051591378 -0.034284521
0.011637295 0.0050220769 -0.034384251
0.011600872 0.0049799532 -0.034316152
0.011713947 0.0047959257 -0.034349699
0.011526136 0.005200305 -0.034350656
0.011750369 0.004839058 -0.034418661
0.011417851 0.0053718239 -0.034319028
0.011380471 0.0053316168 -0.034253899
0.011564449 0.0052357689 -0.034408163
0.011675608 0.0050585 -0.034442667
0.011715865 0.0050891712 -0.03449155
0.011787726 0.0048754793 -0.034478132
0.011605664 0.0052673975 -0.034455128
0.011827982 0.0049080672 -0.034527924
0.01145715 0.0054063285 -0.034374621
0.011497381 0.0054369997 -0.034420624
0.011862487 0.0046541682 -0.034453213
0.011827023 0.0046109883 -0.034382287
0.011936242 0.0044279695 -0.034414873
0.011971705 0.0044720592 -0.034487668
0.011938182 0.00472409 -0.034565307
0.011899843 0.0046924585 -0.034514505
0.012008127 0.0045103971 -0.03454997
0.0120474 0.0045439452 -0.034601729
0.012076154 0.0042957477 -0.034521267
0.012041649 0.0042506987 -0.034447461
0.012150891 0.0043676328 -0.03463719
0.012112576 0.0043340856 -0.034584478
0.011492589 0.0036355043 -0.03311744
0.01143798 0.0035186168 -0.032913335
0.011266462 0.0036087157 -0.03270635
0.01131436 0.0037179319 -0.03290854
0.011188826 0.0039191637 -0.032905664
0.01137091 0.0038319407 -0.033108812
0.011391973 0.0034074839 -0.03270635
0.011138984 0.0038118614 -0.03270635
0.011247291 0.0040312558 -0.033102103
0.011511734 0.003212003 -0.032708269
0.011556782 0.0033250544 -0.032918125
0.011609498 0.0034439052 -0.033126015
0.011357468 0.0033039674 -0.032501284
0.011206077 0.0034151506 -0.032304846
0.011230039 0.0035071159 -0.03250416
0.011100669 0.0037131393 -0.032508954
0.011335422 0.0032100864 -0.032298137
0.011074791 0.0036230432 -0.032312516
0.011459042 0.0030098138 -0.032293346
0.01147917 0.0031065717 -0.032499369
0.011010621 0.0040140515 -0.032707307
0.011062331 0.0041194353 -0.032902788
0.010937777 0.0043139579 -0.032899912
0.011122715 0.0042287009 -0.033095393
0.010884102 0.00421145 -0.032709226
0.010999096 0.0044222642 -0.033088684
0.010943528 0.0038300743 -0.03232114
0.010971324 0.0039172471 -0.032513745
0.010842912 0.0041165594 -0.032518491
0.010814158 0.0040312558 -0.032330725
0.010762425 0.0044001732 -0.032711145
0.010817033 0.0045008585 -0.032898955
0.010880293 0.0046071541 -0.033083893
0.010688622 0.0042239083 -0.032340311
0.010719294 0.0043072486 -0.032525249
0.011066165 0.0045314832 -0.033271704
0.011253042 0.0044490527 -0.033459514
0.011186908 0.004339884 -0.033282246
0.011309545 0.0041443547 -0.033292789
0.011133257 0.0046378262 -0.0334461
0.011373761 0.0042555397 -0.033473894
0.011017306 0.0048189275 -0.033433639
0.010948297 0.0047135446 -0.033263076
0.011197451 0.004738464 -0.033608034
0.011315319 0.0045506526 -0.033625286
0.011435105 0.0043589575 -0.033642538
0.011083441 0.0049166922 -0.03359174
0.011494505 0.0040600114 -0.033489227
0.011432229 0.0039479164 -0.033303283
0.011552013 0.0037524365 -0.033315793
0.011612373 0.0038674055 -0.033504564
0.011553931 0.004166401 -0.033661708
0.011670816 0.0039757118 -0.033679921
0.011725449 0.0036805514 -0.033518892
0.011666982 0.0035636667 -0.033327296
0.011781975 0.0037907772 -0.033698082
0.011366094 0.0029331353 -0.031526759
0.011396789 0.0028823372 -0.031341821
0.011292339 0.0030519869 -0.031181805
0.011260711 0.0030969866 -0.031362861
0.011120797 0.0033145119 -0.031386871
0.011230974 0.0031458689 -0.031544968
0.01143127 0.0028344132 -0.031156886
0.011151445 0.0032704696 -0.031207636
0.011093001 0.0033614757 -0.031566009
0.011564449 0.002624603 -0.03113484
0.01152901 0.0026734378 -0.031321693
0.011496422 0.0027251951 -0.031509507
0.011464793 0.0027874485 -0.030971948
0.011324904 0.0030050213 -0.030998737
0.011182115 0.0032263808 -0.031027488
