# .PCD v0.7 - Point Cloud Data file format
VERSION 0.7
FIELDS x y z rgb
SIZE 4 4 4 4
TYPE F F F U
COUNT 1 1 1 1
WIDTH 1066
HEIGHT 1
VIEWPOINT 0 0 0 1 0 0 0
POINTS 1066
DATA ascii
0.34432063 -0.040291335 0.58200002 4285346095
0.34549814 -0.039092612 0.58399999 4285542961
0.34549263 -0.037755482 0.58399999 4286068787
0.34667042 -0.036543127 0.58600003 4286397750
0.34725672 -0.03526159 0.58700001 4286924348
0.34784314 -0.033975523 0.588 4286858301
0.34842968 -0.032684926 0.58899999 4287187520
0.34842479 -0.031336591 0.58899999 4287646788
0.34901157 -0.030039217 0.58999997 4287908936
0.34900695 -0.028688684 0.58999997 4288633431
0.34900248 -0.027338194 0.58999997 4288962142
0.34899816 -0.025987744 0.58999997 4289028705
0.34899396 -0.024637338 0.58999997 4289555049
0.35487714 -0.085120685 0.597 4278190080
0.3548657 -0.083750993 0.597 4283182383
0.35426006 -0.08224342 0.59600002 4282786338
0.35365465 -0.080740549 0.59500003 4282917410
0.35364383 -0.079375766 0.59500003 4282982690
0.35303882 -0.077879973 0.59399998 4282916897
0.3524341 -0.076388881 0.59299999 4282719772
0.35123527 -0.074775949 0.59100002 4282719772
0.350631 -0.07329651 0.58999997 4282653979
0.34943265 -0.071699828 0.588 4282852385
0.34882882 -0.070232041 0.58700001 4283314989
0.34763095 -0.068651587 0.58499998 4283051817
0.34702757 -0.067195445 0.58399999 4282721569
0.34642437 -0.065743983 0.583 4282786592
0.34522718 -0.064186707 0.58099997 4282786078
0.3452186 -0.06285505 0.58099997 4282917149
0.34521016 -0.061523475 0.58099997 4283047454
0.34520194 -0.060191974 0.58099997 4283046682
0.34519386 -0.058860555 0.58099997 4283440926
0.34518594 -0.057529211 0.58099997 4283374620
0.34517819 -0.056197941 0.58099997 4283637276
0.34517059 -0.054866739 0.58099997 4283571483
0.34516314 -0.05353561 0.58099997 4284163620
0.34515586 -0.052204553 0.58099997 4283834655
0.34514874 -0.050873559 0.58099997 4284097827
0.34514177 -0.049542632 0.58099997 4284031521
0.345135 -0.048211768 0.58099997 4284097312
0.3451283 -0.046880968 0.58099997 4284228898
0.34512183 -0.045550231 0.58099997 4284293921
0.34511545 -0.044219546 0.58099997 4284622886
0.34510925 -0.042888924 0.58099997 4285214509
0.3451032 -0.041558359 0.58099997 4285148203
0.3450973 -0.040227853 0.58099997 4285411888
0.3462795 -0.039031301 0.583 4285542959
0.34686783 -0.037760973 0.58399999 4285871408
0.34805024 -0.036548495 0.58600003 4286266164
0.34863877 -0.035266824 0.58700001 4286858555
0.34863353 -0.033922836 0.58700001 4286858301
0.34981626 -0.032689895 0.58899999 4287384645
0.34981129 -0.031341422 0.58899999 4287646534
0.34980649 -0.029992996 0.58899999 4287778120
0.34980178 -0.028644612 0.58899999 4288172880
0.34979725 -0.027296273 0.58899999 4288633177
0.34979281 -0.025947977 0.58899999 4289028705
0.35038242 -0.024641486 0.58999997 4289818221
0.35569304 -0.084989697 0.59600002 4278190080
0.35568139 -0.083622098 0.59600002 4283050797
0.35507315 -0.082116604 0.59500003 4282917924
0.35506192 -0.080751516 0.59500003 4282786078
0.35445413 -0.079253115 0.59399998 4282851617
0.35384664 -0.077759415 0.59299999 4282916897
0.35323933 -0.076270401 0.59200001 4282917151
0.35203558 -0.074659541 0.58999997 4282653979
0.35142875 -0.073182195 0.58899999 4282653977
0.35022551 -0.071587585 0.58700001 4282852385
0.34902254 -0.070002235 0.58499998 4283445805
0.34841639 -0.068543516 0.58399999 4283249196
0.34721389 -0.066974409 0.58200002 4282721569
0.34720477 -0.065640122 0.58200002 4282523420
0.34659922 -0.064195417 0.58099997 4282786076
0.34659046 -0.062863596 0.58099997 4282588184
0.34598538 -0.061425943 0.57999998 4283047452
0.34597701 -0.060096569 0.57999998 4283309854
0.34596878 -0.058767274 0.57999998 4283375387
0.34596068 -0.057438057 0.57999998 4283243034
0.34654927 -0.056205656 0.58099997 4283571483
0.34654149 -0.054874294 0.58099997 4283834655
0.34653392 -0.053543001 0.58099997 4284032034
0.3465265 -0.052211784 0.58099997 4283966241
0.34651926 -0.050880633 0.58099997 4284032034
0.34651217 -0.04954955 0.58099997 4284163107
0.34650519 -0.048218533 0.58099997 4284163105
0.34649843 -0.046887577 0.58099997 4284294691
0.34649181 -0.045556683 0.58099997 4284688679
0.34588897 -0.044149734 0.57999998 4284622886
0.34647903 -0.042895082 0.58099997 4284885544
0.34647286 -0.041564368 0.58099997 4285082923
0.34646684 -0.040233709 0.58099997 4285411886
0.34765366 -0.03903703 0.583 4285740592
0.34824419 -0.037766568 0.58399999 4286003764
0.34943122 -0.03655396 0.58600003 4286464313
0.35002202 -0.035272155 0.58700001 4286858301
0.35001671 -0.033928022 0.58700001 4287055680
0.35060775 -0.032639444 0.588 4287121475
0.35060272 -0.03129312 0.588 4287844683
0.35119408 -0.029997768 0.58899999 4287844683
0.35118932 -0.028649243 0.58899999 4288107857
0.35118467 -0.027300762 0.58899999 4288962142
0.3511802 -0.025952326 0.58899999 4289226084
0.35117587 -0.024603931 0.58899999 4289686635
0.35590631 -0.084716283 0.59399998 4278190080
0.3552953 -0.083212748 0.59299999 4283050797
0.35528368 -0.081851937 0.59299999 4282852901
0.35527226 -0.080491237 0.59299999 4282786592
0.35466197 -0.078997217 0.59200001 4282983203
0.35465097 -0.077639036 0.59200001 4282916897
0.35404113 -0.076152101 0.59100002 4282719772
0.35283244 -0.074543297 0.58899999 4282719002
0.35222307 -0.073068045 0.588 4282851356
0.35101494 -0.071475506 0.58600003 4282852383
0.35040602 -0.070011906 0.58499998 4283051047
0.34979734 -0.068552993 0.58399999 4282986024
0.3485899 -0.06698367 0.58200002 4282589983
0.34798163 -0.065536395 0.58099997 4282720797
0.3473736 -0.064093798 0.57999998 4282786076
0.34736469 -0.062764093 0.57999998 4282522391
0.34735596 -0.061434466 0.57999998 4282784280
0.34674853 -0.060001295 0.579 4283178522
0.34674016 -0.058674123 0.579 4283375387
0.34673193 -0.057347029 0.579 4283440667
0.34672391 -0.056020014 0.579 4283637276
0.34731483 -0.054787531 0.57999998 4283768862
0.34730715 -0.05345837 0.57999998 4283966241
0.34729961 -0.052129276 0.57999998 4283966241
0.34729221 -0.05080026 0.57999998 4284032034
0.34728497 -0.049471304 0.57999998 4284031519
0.34727794 -0.048142422 0.57999998 4284228898
0.34727103 -0.0468136 0.57999998 4284360484
0.34726426 -0.045484841 0.57999998 4284491300
0.3472577 -0.044156149 0.57999998 4285017130
0.34725127 -0.042827513 0.57999998 4285017130
0.34784368 -0.041570485 0.58099997 4285280302
0.34783754 -0.040239677 0.58099997 4285346093
0.34902894 -0.039042868 0.583 4285872178
0.34962177 -0.037772264 0.58399999 4286069557
0.35021472 -0.036497135 0.58499998 4286398522
0.35080785 -0.035217483 0.58600003 4286595129
0.35140103 -0.033933301 0.58700001 4286989887
0.35199443 -0.032644585 0.588 4286989889
0.35198927 -0.031298112 0.588 4287910476
0.3525829 -0.030002624 0.58899999 4288107855
0.35257804 -0.028653955 0.58899999 4288371029
0.35257334 -0.027305331 0.58899999 4288633177
0.35256878 -0.02595675 0.58899999 4289094498
0.35316291 -0.024649991 0.58999997 4289686637
0.3561115 -0.084443025 0.59200001 4278190080
0.35609943 -0.083084196 0.59200001 4282852905
0.3560876 -0.081725471 0.59200001 4282787110
0.35607594 -0.080366865 0.59200001 4282918178
0.35546306 -0.078874908 0.59100002 4282917410
0.35545188 -0.077518813 0.59100002 4282851358
0.35483941 -0.076033965 0.58999997 4282851358
0.35362586 -0.074427225 0.588 4282850588
0.35301393 -0.072954051 0.58700001 4282917149
0.35180086 -0.071363576 0.58499998 4282918176
0.3511894 -0.06990207 0.58399999 4283380012
0.35057816 -0.06844525 0.583 4282920231
0.34936583 -0.066877991 0.58099997 4282655776
0.34935635 -0.065545641 0.58099997 4282786590
0.34874579 -0.064102851 0.57999998 4282653977
0.34813544 -0.062664732 0.579 4282784793
0.34812653 -0.061337229 0.579 4283046682
0.34811783 -0.0600098 0.579 4283375387
0.34810928 -0.058682457 0.579 4283375387
0.34810093 -0.057355192 0.579 4283440667
0.34809271 -0.056028001 0.579 4283768862
0.34808472 -0.054700892 0.579 4283703069
0.34807685 -0.053373855 0.579 4283834655
0.34867033 -0.052136779 0.57999998 4283966241
0.34866279 -0.050807595 0.57999998 4283834655
0.34865543 -0.049478479 0.57999998 4284163105
0.34864825 -0.048149433 0.57999998 4284163105
0.34864122 -0.046820451 0.57999998 4284492070
0.34863433 -0.045491535 0.57999998 4284754472
0.34862763 -0.044162683 0.57999998 4285017130
0.34862107 -0.042833887 0.57999998 4285017130
0.34861469 -0.041505158 0.57999998 4285082923
0.34920949 -0.040245757 0.58099997 4285411886
0.34980449 -0.038981829 0.58200002 4285806385
0.35039955 -0.037713375 0.583 4286069557
0.35159579 -0.036502793 0.58499998 4286398522
0.35219115 -0.035223 0.58600003 4286858303
0.35278663 -0.033938676 0.58700001 4287384132
0.35338226 -0.032649819 0.588 4287581513
0.35337704 -0.031303193 0.588 4287845196
0.35397291 -0.030007565 0.58899999 4288173650
0.35396796 -0.028658746 0.58899999 4288437335
0.3539632 -0.027309975 0.58899999 4288568154
0.35395855 -0.025961248 0.58899999 4289028707
0.35395408 -0.024612563 0.58899999 4289752945
0.3569124 -0.084312588 0.59100002 4278190080
0.35690013 -0.082955837 0.59100002 4283050284
0.35688809 -0.081599191 0.59100002 4282917926
0.35687625 -0.080242679 0.59100002 4282918178
0.35626072 -0.078752778 0.58999997 4283048996
0.35624933 -0.077398784 0.58999997 4282851358
0.35563436 -0.075916 0.58899999 4282653979
0.35441583 -0.074311331 0.58700001 4283047967
0.35440513 -0.072964534 0.58700001 4282851356
0.35258338 -0.071251817 0.58399999 4282655006
0.35196936 -0.069792397 0.583 4283248426
0.35135558 -0.068337664 0.58200002 4282920231
0.35074201 -0.066887602 0.58099997 4282787362
0.35012868 -0.065442234 0.57999998 4282720797
0.34951562 -0.064001538 0.579 4282851356
0.34950635 -0.062673762 0.579 4282915866
0.34889367 -0.061240125 0.57800001 4283177754
0.34888479 -0.059914809 0.57800001 4283309594
0.34887609 -0.058589581 0.57800001 4283309594
0.3488676 -0.057264436 0.57800001 4283440667
0.34946281 -0.056036148 0.579 4283637276
0.34945464 -0.054708865 0.579 4283637276
0.34944662 -0.053381659 0.579 4283834142
0.34943879 -0.052054524 0.579 4283834655
0.34943113 -0.050727461 0.579 4284097827
0.35002711 -0.049485791 0.57999998 4284163105
0.35001978 -0.048156578 0.57999998 4284360484
0.35001263 -0.046827435 0.57999998 4284492070
0.35000566 -0.045498356 0.57999998 4284688679
0.3499988 -0.04416934 0.57999998 4284753958
0.34999213 -0.042840388 0.57999998 4285082923
0.34998563 -0.041511498 0.57999998 4285346093
0.35058269 -0.040251944 0.58099997 4285346093
0.35117993 -0.038987875 0.58200002 4285543213
0.35177726 -0.037719276 0.583 4286069557
0.35297811 -0.036508553 0.58499998 4286464315
0.35357574 -0.035228614 0.58600003 4286726204
0.35417348 -0.033944145 0.58700001 4287186755
0.35477138 -0.032655142 0.588 4287318854
0.35476604 -0.031308364 0.588 4287845198
0.35476086 -0.029961636 0.588 4288173650
0.3553592 -0.028663622 0.58899999 4288437081
0.35535431 -0.027314698 0.58899999 4288831326
0.35474631 -0.025921736 0.588 4289160806
0.35534504 -0.024616985 0.58899999 4289687152
0.35770988 -0.084182329 0.58999997 4278190080
0.3576974 -0.082827657 0.58999997 4283116077
0.35707888 -0.081335008 0.58899999 4282983719
0.35706687 -0.079982862 0.58899999 4282720545
0.35644886 -0.078497343 0.588 4282983203
0.3564373 -0.07714773 0.588 4282917664
0.35581973 -0.075669318 0.58700001 4282588699
0.35580859 -0.074322209 0.58700001 4282850588
0.35519153 -0.072850898 0.58600003 4282719772
0.35396856 -0.071262248 0.58399999 4282720799
0.35335201 -0.06980262 0.583 4283116586
0.35273567 -0.06834767 0.58200002 4282920231
0.35151345 -0.066782266 0.57999998 4282787362
0.35150364 -0.065451823 0.57999998 4282523420
0.35088798 -0.064010926 0.579 4282784793
0.35087857 -0.062682964 0.579 4282980889
0.35026333 -0.061249126 0.57800001 4283309340
0.35025427 -0.059923634 0.57800001 4283440667
0.35024542 -0.058598224 0.57800001 4283440667
0.35023671 -0.0572729 0.57800001 4283505690
0.35022825 -0.055947654 0.57800001 4283637276
0.35021991 -0.05462249 0.57800001 4283899935
0.3502118 -0.0532974 0.57800001 4283768349
0.35020381 -0.051972385 0.57800001 4284031521
0.35080191 -0.050735071 0.579 4284097827
0.35079429 -0.049407907 0.579 4284228128
0.35078681 -0.048080821 0.579 4284359714
0.35138533 -0.046834547 0.57999998 4284491298
0.35137823 -0.045505304 0.57999998 4284688677
0.35076547 -0.044099957 0.579 4284951335
0.35136446 -0.042847004 0.57999998 4285214509
0.35135782 -0.041517951 0.57999998 4285214507
0.35135135 -0.040188957 0.57999998 4285543726
0.35195082 -0.038927026 0.58099997 4285543726
0.35255045 -0.037660569 0.58200002 4285937717
0.35375595 -0.036452003 0.58399999 4286464061
0.35435581 -0.035174202 0.58499998 4286726204
0.35556158 -0.03394971 0.58700001 4286989376
0.35555604 -0.032605015 0.58700001 4287121223
0.35555062 -0.031260371 0.58700001 4287910739
0.35615104 -0.029966744 0.588 4288436568
0.35614598 -0.028619908 0.588 4288437081
0.3567467 -0.027319502 0.58899999 4288765533
0.35674194 -0.025970468 0.58899999 4289029220
0.35673729 -0.024621481 0.58899999 4289752945
0.35850406 -0.084052294 0.58899999 4278190080
0.35849136 -0.082699686 0.58899999 4283247663
0.35787022 -0.081209101 0.588 4283181098
0.357858 -0.079859033 0.588 4282852131
0.35784599 -0.078509092 0.588 4282786338
0.35722563 -0.077028036 0.58700001 4282655006
0.3566055 -0.075551689 0.58600003 4282654492
0.35598561 -0.074080043 0.58499998 4282719772
0.35536599 -0.07261309 0.58399999 4282851358
0.35413817 -0.071028799 0.58200002 4282852385
0.3541275 -0.06969329 0.58200002 4282985000
0.35350856 -0.068240412 0.58099997 4283116840
0.35288993 -0.066792235 0.57999998 4282589983
0.35287991 -0.065461606 0.57999998 4282786592
0.35226169 -0.064020492 0.579 4282850586
0.35164368 -0.062584072 0.57800001 4283178268
0.35163429 -0.061258305 0.57800001 4283177241
0.35162508 -0.059932627 0.57800001 4283572253
0.35161605 -0.058607031 0.57800001 4283506460
0.3516072 -0.057281524 0.57800001 4283768862
0.35159856 -0.055956103 0.57800001 4283703069
0.35159004 -0.054630753 0.57800001 4283834142
0.35158178 -0.053305488 0.57800001 4283834142
0.35157365 -0.051980298 0.57800001 4283834142
0.35217395 -0.050742824 0.579 4284097827
0.35216618 -0.049415488 0.579 4284293921
0.35215858 -0.048088226 0.579 4284424993
0.35215116 -0.046761032 0.579 4284622884
0.35214391 -0.045433909 0.579 4284819749
0.35213682 -0.044106856 0.579 4284951335
0.35212994 -0.042779859 0.579 4285082921
0.35273132 -0.041524526 0.57999998 4285346093
0.35272473 -0.040195365 0.57999998 4285543726
0.35332644 -0.038933281 0.58099997 4286004023
0.35392833 -0.037666671 0.58200002 4286266682
0.35513842 -0.036457963 0.58399999 4286594877
0.35574058 -0.03518001 0.58499998 4286989376
0.35634291 -0.03389753 0.58600003 4287252294
0.35694534 -0.032610521 0.58700001 4287515981
0.35693982 -0.031265717 0.58700001 4287976532
0.35754254 -0.029971935 0.588 4288173398
0.35753736 -0.028624943 0.588 4288502874
0.35814038 -0.027324386 0.58899999 4288700253
0.35813555 -0.025975194 0.58899999 4289160806
0.35813081 -0.024626048 0.58899999 4289752945
0.3599059 -0.084065169 0.58899999 4278190080
0.35928193 -0.082571916 0.588 4283248176
0.35926923 -0.081221506 0.588 4282984489
0.35925674 -0.079871222 0.588 4282852131
0.35863352 -0.078387521 0.58700001 4282852131
0.35801059 -0.076908536 0.58600003 4282786592
0.35799882 -0.075563192 0.58600003 4282655006
0.35676545 -0.073964663 0.58399999 4282851871
0.35614327 -0.072499782 0.583 4283114530
0.35552132 -0.071039602 0.58200002 4282918178
0.35489959 -0.069584116 0.58099997 4282919207
0.35427815 -0.068133324 0.57999998 4282919461
0.35426772 -0.066802397 0.57999998 4282721569
0.35364673 -0.065358691 0.579 4282851871
0.35363674 -0.064030252 0.579 4282982172
0.3530162 -0.062593617 0.57800001 4283177754
0.3530066 -0.061267659 0.57800001 4283440413
0.3523865 -0.059838086 0.57700002 4283374874
0.35237733 -0.058514599 0.57700002 4283440667
0.35236832 -0.057191201 0.57700002 4283637276
0.3523595 -0.055867884 0.57700002 4284031521
0.35235089 -0.05454465 0.57700002 4283964958
0.35234246 -0.053221494 0.57700002 4283899935
0.35294482 -0.051988363 0.57800001 4284097314
0.35293671 -0.050663065 0.57800001 4284031521
0.35353941 -0.04942321 0.579 4284359714
0.35353166 -0.04809577 0.579 4284556577
0.35352412 -0.046768405 0.579 4284819749
0.35351673 -0.045441106 0.579 4284885542
0.35350952 -0.044113878 0.579 4285017128
0.35350248 -0.042786714 0.579 4285280300
0.3534956 -0.041459616 0.579 4285279787
0.35409942 -0.040201891 0.57999998 4285740338
0.35470337 -0.038939647 0.58099997 4285938230
0.35530752 -0.037672885 0.58200002 4286267195
0.35652226 -0.036464028 0.58399999 4286464061
0.35712668 -0.035185918 0.58499998 4286923329
0.35773125 -0.033903286 0.58600003 4287054915
0.35833597 -0.03261612 0.58700001 4287844946
0.35833037 -0.031271152 0.58700001 4287779153
0.35893536 -0.029977217 0.588 4288371290
0.35893008 -0.028630061 0.588 4288831839
0.3595354 -0.027329352 0.58899999 4288897632
0.35953045 -0.025979999 0.58899999 4289226599
0.35952565 -0.024630694 0.58899999 4289622129
0.36068258 -0.082584783 0.588 4283182381
0.36066964 -0.081234157 0.588 4282984489
0.36004359 -0.079747789 0.58700001 4282720545
0.35941777 -0.078266144 0.58600003 4282720545
0.35879219 -0.0767892 0.58499998 4282720799
0.35816693 -0.07531698 0.58399999 4282655006
0.35754189 -0.073849462 0.583 4282917664
0.35691714 -0.072386645 0.58200002 4282983457
0.35629261 -0.070928529 0.58099997 4282720799
0.35628155 -0.069594897 0.58099997 4282655522
0.35565752 -0.068143882 0.57999998 4282919461
0.35503373 -0.06669756 0.579 4282589983
0.35502332 -0.065368831 0.579 4282654492
0.35440001 -0.063929588 0.57800001 4283113245
0.35439005 -0.062603347 0.57800001 4283375133
0.35376716 -0.061171174 0.57700002 4283506460
0.35375762 -0.059847411 0.57700002 4283506460
0.35374826 -0.058523733 0.57700002 4283506460
0.35373908 -0.057200141 0.57700002 4283637274
0.35373008 -0.055876639 0.57700002 4283834140
0.35372132 -0.054553218 0.57700002 4284030749
0.35371274 -0.05322988 0.57700002 4284030749
0.3537043 -0.051906619 0.57700002 4284097312
0.35430905 -0.050671101 0.57800001 4284162337
0.35491398 -0.049431074 0.579 4284491300
0.35490611 -0.048103455 0.579 4284556577
0.35489842 -0.046775911 0.579 4284753956
0.35489088 -0.045448434 0.579 4285017128
0.35488352 -0.044121031 0.579 4285082921
0.35487637 -0.042793695 0.579 4285477166
0.3548694 -0.041466419 0.579 4285542189
0.35547543 -0.040208537 0.57999998 4285740338
0.35608166 -0.038946133 0.58099997 4286069303
0.35668808 -0.037679207 0.58200002 4286070330
0.35729459 -0.036407758 0.583 4286464061
0.35790128 -0.035131779 0.58399999 4287252294
0.35912097 -0.033909142 0.58600003 4287581261
0.35911509 -0.032566246 0.58600003 4288108888
0.35972223 -0.031276681 0.58700001 4287977302
0.36032951 -0.029982589 0.588 4288174681
0.36032414 -0.028635265 0.588 4288700253
0.36093175 -0.0273344 0.58899999 4288897632
0.36092669 -0.025984883 0.58899999 4289029220
0.36092186 -0.024635414 0.58899999 4289687920
0.36145577 -0.081108876 0.58700001 4283050282
0.3614428 -0.079760432 0.58700001 4283115303
0.36081439 -0.078278534 0.58600003 4282852131
0.36018619 -0.076801352 0.58499998 4282852385
0.35894266 -0.075199902 0.583 4282786592
0.35893071 -0.07386113 0.583 4282852385
0.35830331 -0.072398081 0.58200002 4282786592
0.35706058 -0.070817634 0.57999998 4282786592
0.35704935 -0.069486089 0.57999998 4282721315
0.35642272 -0.068037145 0.579 4282919207
0.35579637 -0.066592887 0.57800001 4282523936
0.35578582 -0.065266244 0.57800001 4282851869
0.35515994 -0.063829087 0.57700002 4283113245
0.35514981 -0.062504932 0.57700002 4283375133
0.35452434 -0.061074838 0.57599998 4283572253
0.35451463 -0.059753168 0.57599998 4283638046
0.35450509 -0.058431592 0.57599998 4283638044
0.35449576 -0.057110101 0.57599998 4283703065
0.35510209 -0.055885561 0.57700002 4283899931
0.35509315 -0.054561947 0.57700002 4284162333
0.35508439 -0.053238418 0.57700002 4284228126
0.35507581 -0.051914971 0.57700002 4284228126
0.35568279 -0.050679285 0.57800001 4284424995
0.35628992 -0.049439084 0.579 4284688679
0.35628194 -0.048111282 0.579 4284819751
0.35627407 -0.046783555 0.579 4284951335
0.35626638 -0.045455903 0.579 4284951335
0.3562589 -0.044128317 0.579 4285082408
0.35625163 -0.042800799 0.579 4285476396
0.3562445 -0.041473351 0.579 4285739055
0.35685283 -0.040215302 0.57999998 4285936947
0.35684606 -0.03888569 0.57999998 4286134326
0.35745469 -0.037620891 0.58099997 4286398268
0.35867876 -0.036414031 0.583 4286463291
0.35928768 -0.035137888 0.58399999 4287054915
0.36051202 -0.033915102 0.58600003 4287779153
0.36050606 -0.032572031 0.58600003 4287846229
0.36111546 -0.031282309 0.58700001 4288109401
0.36172503 -0.029988054 0.588 4288372060
0.36171958 -0.028640559 0.588 4288832609
0.36232942 -0.027339533 0.58899999 4288897632
0.36232436 -0.025989847 0.58899999 4288832611
0.36293453 -0.024682041 0.58999997 4289753713
0.36287016 -0.08247079 0.58700001 4278190080
0.36285672 -0.081121981 0.58700001 4278190080
0.36222541 -0.079637416 0.58600003 4283246889
0.36159435 -0.078157559 0.58499998 4282983717
0.36096361 -0.076682426 0.58399999 4282786592
0.36033311 -0.075212017 0.583 4282852385
0.35970289 -0.073746316 0.58200002 4282786592
0.35907289 -0.072285309 0.58099997 4282852385
0.35844323 -0.070829026 0.57999998 4282786592
0.35781381 -0.069377445 0.579 4282721315
0.35718462 -0.067930564 0.57800001 4282589729
0.3565557 -0.066488378 0.57700002 4282523936
0.35654494 -0.065163821 0.57700002 4282917149
0.35591647 -0.06372872 0.57599998 4283309854
0.35590616 -0.062406663 0.57599998 4283440926
0.35589606 -0.061084699 0.57599998 4283440667
0.3552683 -0.059659075 0.57499999 4283638046
0.35525861 -0.058339596 0.57499999 4283703837
0.35524911 -0.057020202 0.57499999 4283834651
0.35585767 -0.055797767 0.57599998 4283768345
0.35584852 -0.054476257 0.57599998 4283964954
0.35583964 -0.05315483 0.57599998 4284030747
0.35644871 -0.051923484 0.57700002 4284293919
0.35644019 -0.050599925 0.57700002 4284490786
0.35704958 -0.049361844 0.57800001 4284951337
0.35704142 -0.048036151 0.57800001 4285082923
0.35765111 -0.046791341 0.579 4285346093
0.35702562 -0.045384984 0.57800001 4285280300
0.35701802 -0.044059504 0.57800001 4285411373
0.3570106 -0.042734101 0.57800001 4285739568
0.35700339 -0.041408766 0.57800001 4285804850
0.35761395 -0.04015284 0.579 4286200119
0.35822469 -0.038892396 0.57999998 4286265912
0.35883561 -0.037627432 0.58099997 4286463291
0.3594467 -0.036357943 0.58200002 4286200119
0.36005792 -0.035083927 0.583 4287252294
0.36128688 -0.033863273 0.58499998 4287779153
0.36189842 -0.032577917 0.58600003 4288043608
0.36189252 -0.031234728 0.58600003 4288109401
0.36312193 -0.029993609 0.588 4288372060
0.36311638 -0.028645942 0.588 4288701023
0.36372855 -0.027344752 0.58899999 4288569437
0.36372337 -0.025994893 0.58899999 4289227369
0.36433586 -0.024686925 0.58999997 4289951092
0.36427286 -0.082484387 0.58700001 4278190080
0.36363864 -0.080997132 0.58600003 4278190080
0.36362523 -0.079650514 0.58600003 4283246891
0.36237103 -0.078036785 0.58399999 4283246375
0.36235815 -0.076695018 0.58399999 4282918178
0.36110461 -0.075095326 0.58200002 4282720799
0.36047176 -0.073631674 0.58099997 4282852385
0.35983923 -0.072172731 0.57999998 4282720799
0.35920694 -0.070718504 0.579 4282786592
0.35857493 -0.069268972 0.57800001 4282786338
0.35732278 -0.067706607 0.57599998 4282852131
0.35731167 -0.066384025 0.57599998 4282457373
0.3573007 -0.065061554 0.57599998 4282982172
0.35666972 -0.063628525 0.57499999 4283440926
0.35665923 -0.062308557 0.57499999 4283506973
0.35664895 -0.060988683 0.57499999 4283572251
0.35663888 -0.059668902 0.57499999 4283571483
0.35662898 -0.058349222 0.57499999 4283703837
0.35661933 -0.057029627 0.57499999 4284031517
0.35660991 -0.055710126 0.57499999 4284097310
0.35660061 -0.05439071 0.57499999 4284228126
0.35721171 -0.053163681 0.57599998 4284162333
0.35782304 -0.051932149 0.57700002 4284425505
0.35781434 -0.050608397 0.57700002 4284622884
0.35842595 -0.04937014 0.57800001 4284885544
0.35841766 -0.048044253 0.57800001 4285082923
0.35840952 -0.046718445 0.57800001 4285411888
0.3584016 -0.045392707 0.57800001 4285346093
0.35839385 -0.044067044 0.57800001 4285411373
0.35838631 -0.042741455 0.57800001 4285936947
0.35837892 -0.04141593 0.57800001 4285871156
0.35899177 -0.04015984 0.579 4286200121
0.35960478 -0.038899221 0.57999998 4286529084
0.35959795 -0.037569311 0.57999998 4286923329
0.36083126 -0.036364429 0.58200002 4286791743
0.36144474 -0.035090245 0.583 4287383880
0.36267838 -0.03386943 0.58499998 4287910739
0.36329222 -0.032583907 0.58600003 4287911509
0.3632862 -0.031240536 0.58600003 4288240987
0.36390033 -0.029948242 0.58700001 4288372573
0.36451465 -0.028651414 0.588 4288635230
0.36512908 -0.027350055 0.58899999 4288833122
0.36512378 -0.026000021 0.58899999 4289556847
0.36573857 -0.024691885 0.58999997 4289885812
0.36504024 -0.081010722 0.58600003 4278190080
0.36440364 -0.079527915 0.58499998 4283509549
0.36376736 -0.078049846 0.58399999 4283443754
0.36313137 -0.076576509 0.583 4282983457
0.36187279 -0.074978828 0.58099997 4282917664
0.36123741 -0.073517226 0.57999998 4282851871
0.36060226 -0.072060332 0.579 4282917664
0.35996738 -0.070608154 0.57800001 4282786592
0.35933277 -0.069160677 0.57700002 4282654752
0.35869843 -0.06771791 0.57599998 4282786338
0.35806432 -0.066279851 0.57499999 4282786078
0.35743055 -0.064846486 0.574 4283179551
0.35741967 -0.063528493 0.574 4283506719
0.35740897 -0.062210605 0.574 4283638559
0.35739851 -0.060892817 0.574 4283703067
0.35738829 -0.059575126 0.574 4283703067
0.35675567 -0.058156036 0.57300001 4283966239
0.35736844 -0.05694003 0.574 4284031517
0.35735884 -0.055622619 0.574 4284228126
0.35797197 -0.054399908 0.57499999 4284162333
0.3585853 -0.053172689 0.57599998 4284293919
0.35857624 -0.051850952 0.57599998 4284491298
0.35918996 -0.050617024 0.57700002 4284754470
0.35980377 -0.049378589 0.57800001 4285082921
0.35979533 -0.048052505 0.57800001 4285346095
0.35978705 -0.046726502 0.57800001 4285215023
0.35977897 -0.045400575 0.57800001 4285543472
0.3597711 -0.044074718 0.57800001 4285542959
0.35976338 -0.042748939 0.57800001 4286002742
0.3597559 -0.041423231 0.57800001 4286200121
0.36037099 -0.040166959 0.579 4286265914
0.36036387 -0.038839091 0.579 4286529086
0.36097929 -0.037576076 0.57999998 4286923331
0.36221731 -0.03637103 0.58200002 4286989122
0.36283305 -0.035096671 0.583 4287384395
0.36407131 -0.033875693 0.58499998 4287779153
0.36406505 -0.03253438 0.58499998 4288239704
0.36530367 -0.031299766 0.58700001 4288109401
0.36529776 -0.029953975 0.58700001 4288504159
0.36591431 -0.028656978 0.588 4288701538
0.36653104 -0.027355447 0.58899999 4289096296
0.36652568 -0.026005233 0.58899999 4289622640
0.36652049 -0.024655066 0.58899999 4289886328
0.36581805 -0.080886297 0.58499998 4278190080
0.36517888 -0.079405531 0.58399999 4283509549
0.36453995 -0.077929489 0.583 4283443754
0.36390138 -0.076458186 0.58200002 4283049250
0.36263779 -0.074862525 0.57999998 4283114530
0.36199975 -0.073402964 0.579 4283114530
0.36136201 -0.071948119 0.57800001 4283048737
0.36072454 -0.070497982 0.57700002 4282786592
0.36008734 -0.069052555 0.57599998 4282786338
0.35945043 -0.067611843 0.57499999 4282851617
0.35881376 -0.066175833 0.574 4282851358
0.35817736 -0.064744532 0.57300001 4283310624
0.35816631 -0.063428618 0.57300001 4283572512
0.35815546 -0.062112816 0.57300001 4283441180
0.35814482 -0.060797106 0.57300001 4283637274
0.35813439 -0.059481498 0.57300001 4283768860
0.35812423 -0.058165994 0.57300001 4284031519
0.35811421 -0.056850579 0.57300001 4284359712
0.35872939 -0.055632174 0.574 4284359452
0.35871983 -0.054314651 0.574 4284359198
0.35933536 -0.05308954 0.57499999 4284425505
0.35995111 -0.051859926 0.57599998 4284491298
0.35994211 -0.050538067 0.57599998 4284886056
0.36118311 -0.04938719 0.57800001 4285280814
0.36117446 -0.048060913 0.57800001 4285215021
0.36116606 -0.046734706 0.57800001 4285280814
0.3611578 -0.04540858 0.57800001 4285609779
0.36114982 -0.044082537 0.57800001 4285806133
0.36114198 -0.042756557 0.57800001 4285937719
0.36113435 -0.041430656 0.57800001 4285937719
0.36175168 -0.040174209 0.579 4286398270
0.36174443 -0.038846146 0.579 4286726465
0.36236215 -0.037582953 0.57999998 4287121223
0.36360478 -0.036377743 0.58200002 4287121223
0.36422279 -0.035103209 0.583 4287515983
0.36484098 -0.03382415 0.58399999 4287844948
0.36545935 -0.032540563 0.58499998 4288239704
0.36607793 -0.031252451 0.58600003 4288109401
0.3666966 -0.029959807 0.58700001 4288504159
0.36669078 -0.028613888 0.58700001 4288833126
0.36730984 -0.027314475 0.588 4289425263
0.36730438 -0.02596637 0.588 4289623926
0.36729914 -0.024618313 0.588 4290019713
0.36659268 -0.080762081 0.58399999 4278190080
0.36595085 -0.079283342 0.583 4283641649
0.36530936 -0.077809334 0.58200002 4283575340
0.36529577 -0.076471455 0.58200002 4283378215
0.36402714 -0.074875504 0.57999998 4283180323
0.36338648 -0.073415682 0.579 4283180323
0.36211854 -0.071836084 0.57700002 4283048737
0.36147845 -0.070387989 0.57599998 4282918178
0.36083868 -0.068944611 0.57499999 4282654752
0.36019915 -0.067505948 0.574 4282851104
0.35955989 -0.066071995 0.57300001 4282982174
0.35892093 -0.064642742 0.57200003 4283179038
0.3589097 -0.063328907 0.57200003 4283638305
0.35889864 -0.062015176 0.57200003 4283770145
0.35888785 -0.060701553 0.57200003 4283768860
0.35950467 -0.05949185 0.57300001 4284097312
0.3594943 -0.05817613 0.57300001 4283834140
0.35948411 -0.056860499 0.57300001 4284030747
0.36010149 -0.055641904 0.574 4284556831
0.36009175 -0.054324169 0.574 4284556064
0.36070949 -0.053098865 0.57499999 4284688677
0.36070013 -0.051779013 0.57499999 4284951849
0.36131826 -0.050547004 0.57599998 4284952619
0.36256388 -0.049395949 0.57800001 4285215021
0.36255512 -0.048069462 0.57800001 4285346607
0.36254656 -0.046743061 0.57800001 4285346607
0.36253819 -0.045416739 0.57800001 4285543988
0.36253002 -0.044090491 0.57800001 4286069303
0.36252207 -0.042764314 0.57800001 4286003512
0.36251426 -0.041438214 0.57800001 4286135098
0.36313391 -0.040181585 0.579 4286595649
0.36312652 -0.038853329 0.579 4286858051
0.36437362 -0.037654765 0.58099997 4287318602
0.36499375 -0.036384575 0.58200002 4287450190
0.36561406 -0.035109859 0.583 4287515983
0.36623451 -0.033830617 0.58399999 4287714132
0.36685514 -0.032546852 0.58499998 4288437083
0.36747599 -0.031258561 0.58600003 4288240987
0.36746988 -0.02991469 0.58600003 4288701538
0.36809105 -0.028619628 0.58700001 4288965226
0.36808535 -0.027273575 0.58700001 4289425777
0.36870685 -0.02597174 0.588 4289821051
0.36870149 -0.024623496 0.588 4290677645
0.36736417 -0.080638081 0.583 4278190080
0.36671966 -0.079161361 0.58200002 4283708212
0.3667056 -0.077823102 0.58200002 4283444268
0.36606166 -0.076353543 0.58099997 4283575594
0.36478809 -0.07475961 0.579 4283312422
0.3641448 -0.073301822 0.57800001 4283311909
0.3628718 -0.071724229 0.57599998 4283114530
0.3628591 -0.070400402 0.57599998 4282851871
0.36221668 -0.068956777 0.57499999 4282917410
0.36094466 -0.067400232 0.57300001 4283113506
0.36093271 -0.066083655 0.57300001 4283179040
0.36029115 -0.064654157 0.57200003 4283506719
0.36027965 -0.063340098 0.57200003 4283638046
0.35963857 -0.0619177 0.57099998 4283835425
0.35962757 -0.060606148 0.57099998 4283899933
0.36024666 -0.059398547 0.57200003 4284162335
0.36023608 -0.058084901 0.57200003 4284425507
0.36022577 -0.056771353 0.57200003 4284556577
0.36084536 -0.055554859 0.57300001 4284754210
0.36146519 -0.054333862 0.574 4284490784
0.36208513 -0.053108364 0.57499999 4284885796
0.36207566 -0.0517883 0.57499999 4284951849
0.36269599 -0.050556097 0.57599998 4285018412
0.36331657 -0.049319394 0.57700002 4285543986
0.36330765 -0.047994997 0.57700002 4285412400
0.36392859 -0.046751566 0.57800001 4285675572
0.36392003 -0.045425035 0.57800001 4285807160
0.36391172 -0.044098586 0.57800001 4286332988
0.36390364 -0.042772207 0.57800001 4286397500
0.36389574 -0.041445907 0.57800001 4286529856
0.36451757 -0.040189091 0.579 4286793028
0.36451009 -0.038860638 0.579 4286990407
0.36576185 -0.037661899 0.58099997 4287385165
0.36638427 -0.036391523 0.58200002 4287385167
0.36700684 -0.035116624 0.583 4287778901
0.36762956 -0.033837199 0.58399999 4287845718
0.36825249 -0.032553248 0.58499998 4288306267
0.36824611 -0.031211417 0.58499998 4288306780
0.36886939 -0.029920707 0.58600003 4288702054
0.36886337 -0.0285767 0.58600003 4289163375
0.36885759 -0.027232746 0.58600003 4289492086
0.36948144 -0.025933024 0.58700001 4290150531
0.36947602 -0.024586881 0.58700001 4290481039
0.36876494 -0.080652647 0.583 4278190080
0.36811781 -0.079175651 0.58200002 4283840311
0.36747098 -0.077703372 0.58099997 4283576624
0.36745688 -0.076367296 0.58099997 4283444522
0.36554584 -0.074643925 0.57800001 4283509801
0.36553234 -0.073315002 0.57800001 4283311909
0.3642543 -0.071737118 0.57599998 4283114530
0.36360902 -0.070290811 0.57499999 4283179299
0.36359632 -0.06896916 0.57499999 4282981920
0.36231926 -0.067412347 0.57300001 4283179553
0.3623071 -0.066095524 0.57300001 4283309854
0.36166286 -0.064665779 0.57200003 4283638046
0.36165121 -0.06335149 0.57200003 4284032034
0.36100754 -0.061928846 0.57099998 4283834655
0.36099634 -0.060617067 0.57099998 4284030749
0.36098537 -0.059305396 0.57099998 4284293921
0.36160687 -0.058095392 0.57200003 4284425507
0.36159632 -0.056781631 0.57200003 4284622370
0.36221814 -0.055564929 0.57300001 4284885796
0.36284018 -0.05434373 0.574 4285017128
0.36346236 -0.053118039 0.57499999 4285280554
0.36345264 -0.051797759 0.57499999 4285215021
0.36407527 -0.050565355 0.57599998 4285084205
0.36406595 -0.049242962 0.57599998 4285543986
0.36468896 -0.048003849 0.57700002 4285675572
0.36468011 -0.046679322 0.57700002 4285938744
0.36467147 -0.045354877 0.57700002 4286136125
0.36529499 -0.044106822 0.57800001 4286201916
0.36528677 -0.042780243 0.57800001 4286989635
0.36527872 -0.041453738 0.57800001 4286595649
0.36590281 -0.040196728 0.579 4286990407
0.36589518 -0.03886807 0.579 4287319372
0.36715162 -0.037669156 0.58099997 4287385165
0.3677763 -0.03639859 0.58200002 4287714132
0.36840111 -0.035123501 0.583 4287845718
0.36902615 -0.03384389 0.58399999 4287911511
0.36965135 -0.032559752 0.58499998 4288240474
0.36964485 -0.031217722 0.58499998 4288504159
0.36963856 -0.029875753 0.58499998 4288768617
0.37026435 -0.02858262 0.58600003 4289426547
0.37025845 -0.02723847 0.58600003 4289689978
0.37025276 -0.025894374 0.58600003 4290151301
0.37016743 -0.080667473 0.583 4278190080
0.36888269 -0.07905411 0.58099997 4283710010
0.36886811 -0.077717632 0.58099997 4283708725
0.36821893 -0.07624983 0.57999998 4283575854
0.36693522 -0.074657589 0.57800001 4283444522
0.36628667 -0.073201559 0.57700002 4283377702
0.36563841 -0.071750246 0.57599998 4283311909
0.36499047 -0.070303664 0.57499999 4283508264
0.36497754 -0.068981774 0.57499999 4283442471
0.36369544 -0.06742467 0.57300001 4283573798
0.36368307 -0.066107623 0.57300001 4283506719
0.36303625 -0.064677611 0.57200003 4283966241
0.36238968 -0.063252307 0.57099998 4284031521
0.36237806 -0.061940193 0.57099998 4284031521
0.36236665 -0.060628191 0.57099998 4284490788
0.3623555 -0.059316289 0.57099998 4284359714
0.36234456 -0.058004487 0.57099998 4284491300
0.36233386 -0.056692798 0.57099998 4284491298
0.36359251 -0.055575185 0.57300001 4284885542
0.36358222 -0.054259088 0.57300001 4285214507
0.36420664 -0.053035486 0.574 4285346347
0.36483127 -0.051807385 0.57499999 4285411886
0.36482164 -0.050486982 0.57499999 4285609779
0.36544666 -0.049252167 0.57599998 4285609779
0.36607191 -0.048012856 0.57700002 4285675572
0.36606285 -0.046688117 0.57700002 4286136125
0.36605406 -0.045363463 0.57700002 4286267711
0.36604545 -0.044038884 0.57700002 4286728262
0.3660371 -0.042714391 0.57700002 4286990920
0.36666328 -0.041461702 0.57800001 4286859334
0.36728966 -0.040204499 0.579 4287319885
0.36728188 -0.038875636 0.579 4287648850
0.36854297 -0.037676539 0.58099997 4287516751
0.36916992 -0.036405783 0.58200002 4287714132
0.36916271 -0.035070244 0.58200002 4288108890
0.3704243 -0.033850696 0.58399999 4288175196
0.37041751 -0.032510698 0.58399999 4288373089
0.37041092 -0.031170759 0.58399999 4288505191
0.37103879 -0.029881962 0.58499998 4289294707
0.3710326 -0.028539848 0.58499998 4289821051
0.37166086 -0.027244287 0.58600003 4290150531
0.37102085 -0.025855791 0.58499998 4290612111
0.3715716 -0.080682576 0.583 4278190080
0.37028176 -0.079068892 0.58099997 4283974212
0.36962965 -0.077598356 0.57999998 4283841081
0.36961505 -0.076264054 0.57999998 4283576626
0.36832631 -0.074671522 0.57800001 4283641647
0.3676751 -0.073215201 0.57700002 4283575081
0.36702415 -0.071763612 0.57599998 4283574311
0.36637357 -0.070316762 0.57499999 4283639850
0.36636043 -0.068994619 0.57499999 4283903276
0.36507329 -0.067437232 0.57300001 4283836970
0.36506069 -0.066119932 0.57300001 4283572512
0.36441126 -0.064689659 0.57200003 4283901218
0.36376205 -0.063264102 0.57099998 4284163107
0.36375022 -0.061951753 0.57099998 4284228900
0.3637386 -0.060639508 0.57099998 4284819753
0.36372724 -0.059327375 0.57099998 4284622886
0.3637161 -0.05801535 0.57099998 4284491300
0.36370522 -0.056703426 0.57099998 4284886056
0.36496848 -0.055585623 0.57300001 4284885542
0.36495799 -0.054269306 0.57300001 4285346093
0.36558464 -0.053045493 0.574 4285346347
0.3662115 -0.051817182 0.57499999 4285345580
0.3662017 -0.050496556 0.57499999 4285741365
0.36682895 -0.049261544 0.57599998 4285741365
0.36745641 -0.048022024 0.57700002 4286136123
0.36744723 -0.046697069 0.57700002 4286267711
0.36743826 -0.045372196 0.57700002 4286530883
0.36742952 -0.044047408 0.57700002 4286662471
0.367421 -0.042722695 0.57700002 4286991434
0.36741266 -0.041398063 0.57700002 4287123020
0.36804134 -0.040142957 0.57800001 4287648850
0.36867017 -0.038883332 0.579 4287451471
0.3699359 -0.037684049 0.58099997 4287780436
0.36992839 -0.036350526 0.58099997 4288043610
0.37055784 -0.035077348 0.58200002 4288109403
0.37182409 -0.033857618 0.58399999 4288373859
0.37181717 -0.032517407 0.58399999 4288373859
0.37181047 -0.031177264 0.58399999 4288768876
0.37244064 -0.029888274 0.58499998 4289426806
0.37243432 -0.028545953 0.58499998 4289886844
0.37242827 -0.027203694 0.58499998 4290348680
0.37305903 -0.0259057 0.58600003 4290284943
0.3729775 -0.080697939 0.583 4278190080
0.37168258 -0.079083934 0.58099997 4283843909
0.37102774 -0.077613115 0.57999998 4283973952
0.37101293 -0.076278552 0.57999998 4283775290
0.36971909 -0.074685693 0.57800001 4283773235
0.3690652 -0.073229097 0.57700002 4283640620
0.3684116 -0.071777225 0.57599998 4283705643
0.36839792 -0.070452407 0.57599998 4283968815
0.36774498 -0.069007702 0.57499999 4283771177
0.36645278 -0.067450017 0.57300001 4283836970
0.36643994 -0.066132471 0.57300001 4283967270
0.36578789 -0.064701937 0.57200003 4284098597
0.36513606 -0.063276105 0.57099998 4284097827
0.36512402 -0.061963513 0.57099998 4284294693
0.36511219 -0.060651034 0.57099998 4284425509
0.36510062 -0.059338666 0.57099998 4284820265
0.36508933 -0.058026407 0.57099998 4285083437
0.36507824 -0.056714248 0.57099998 4285017128
0.36634609 -0.055596251 0.57300001 4285280300
0.36633542 -0.0542797 0.57300001 4285477679
0.3676036 -0.053148113 0.57499999 4285477933
0.36759338 -0.051827163 0.57499999 4285872437
0.36822262 -0.05059414 0.57599998 4285938232
0.36821285 -0.049271084 0.57599998 4286201916
0.36820331 -0.047948111 0.57599998 4286201918
0.36819395 -0.046625227 0.57599998 4286662471
0.36818486 -0.045302432 0.57599998 4286991436
0.36881521 -0.044056073 0.57700002 4287320401
0.36880654 -0.042731144 0.57700002 4287517780
0.36879808 -0.041406296 0.57700002 4287649366
0.36942896 -0.040150985 0.57800001 4287650136
0.37006006 -0.038891159 0.579 4287715157
0.37069139 -0.037626814 0.57999998 4287978329
0.37132284 -0.036357954 0.58099997 4287913308
0.37195456 -0.035084572 0.58200002 4288044894
0.37258643 -0.033806667 0.583 4288242019
0.37321845 -0.032524232 0.58399999 4288703083
0.37321168 -0.03118388 0.58399999 4289098611
0.37384409 -0.029894687 0.58499998 4289624955
0.37383771 -0.028552162 0.58499998 4290085508
0.37372729 -0.079235412 0.58200002 4284174673
0.3730697 -0.077761978 0.58099997 4283974466
0.37305459 -0.076424837 0.58099997 4283907389
0.37175563 -0.07482937 0.579 4283708212
0.37109905 -0.073370174 0.57800001 4284035378
0.37044284 -0.071915723 0.57700002 4284100401
0.36978686 -0.070466004 0.57599998 4284034095
0.36913127 -0.069021016 0.57499999 4283968556
0.36847591 -0.067580767 0.574 4283968556
0.36782095 -0.066145234 0.57300001 4284230442
0.36716619 -0.064714424 0.57200003 4284361769
0.36651176 -0.063288331 0.57099998 4284492585
0.36649951 -0.061975494 0.57099998 4284360486
0.36648747 -0.060662773 0.57099998 4284754472
0.3664757 -0.059350159 0.57099998 4284688677
0.36646417 -0.058037661 0.57099998 4285149228
0.36645287 -0.056725264 0.57099998 4285280302
0.36772534 -0.055607069 0.57300001 4285411888
0.36771452 -0.054290283 0.57300001 4285740851
0.36898732 -0.053158496 0.57499999 4285675058
0.36897689 -0.051837314 0.57499999 4286201402
0.36960837 -0.050604083 0.57599998 4286004025
0.36959842 -0.049280789 0.57599998 4286267711
0.3695887 -0.047957592 0.57599998 4286728262
0.3695792 -0.046634484 0.57599998 4286991436
0.36956993 -0.045311462 0.57599998 4287188815
0.3695609 -0.043988522 0.57599998 4287517526
0.36955208 -0.042665664 0.57599998 4287715159
0.37018511 -0.041414671 0.57700002 4287518550
0.37081829 -0.040159155 0.57800001 4287650136
0.37081012 -0.038831938 0.57800001 4287912538
0.37208518 -0.037634578 0.57999998 4288044892
0.37207747 -0.036302917 0.57999998 4288110687
0.37335294 -0.035091922 0.58200002 4288242273
0.37398711 -0.033813812 0.583 4288044642
0.37397993 -0.032475471 0.583 4288769646
0.37461451 -0.031190602 0.58399999 4289164919
0.37524924 -0.029901208 0.58499998 4289691263
0.37524274 -0.028558468 0.58499998 4290283662
0.37577859 -0.079387218 0.583 4278190080
0.37511832 -0.077911176 0.58200002 4283318597
0.37510291 -0.076571457 0.58200002 4283974212
0.37315428 -0.074844085 0.579 4283973182
0.37313953 -0.073511563 0.579 4283840311
0.37183616 -0.071929857 0.57700002 4284167991
0.37182194 -0.070602208 0.57700002 4284232757
0.37051922 -0.069034576 0.57499999 4284165935
0.36986127 -0.067594044 0.574 4284100142
0.36984792 -0.066273689 0.574 4284427823
0.36854625 -0.064727142 0.57200003 4284559148
0.36853349 -0.063411638 0.57200003 4284492585
0.36787671 -0.061987687 0.57099998 4284493353
0.36786443 -0.06067472 0.57099998 4284821033
0.36785245 -0.05936186 0.57099998 4285280554
0.36848494 -0.058150783 0.57200003 4285215275
0.36911762 -0.05693521 0.57300001 4285412400
0.36910632 -0.055618081 0.57300001 4285675060
0.36973944 -0.054395821 0.574 4285806646
0.37037271 -0.053169068 0.57499999 4286201404
0.37100622 -0.051937819 0.57599998 4286464576
0.37099585 -0.050614197 0.57599998 4286398783
0.37098572 -0.049290676 0.57599998 4286530885
0.37097579 -0.047967244 0.57599998 4286794057
0.37096617 -0.046643902 0.57599998 4286860620
0.37095672 -0.045320649 0.57599998 4287320917
0.37094751 -0.043997478 0.57599998 4287452503
0.37093857 -0.0426744 0.57599998 4287453270
0.37092984 -0.041351397 0.57599998 4287519063
0.37156531 -0.040097971 0.57700002 4287584343
0.37220097 -0.038840026 0.57800001 4288044894
0.3728368 -0.037577562 0.579 4288110685
0.37347284 -0.036310583 0.57999998 4288242271
0.37475303 -0.035099391 0.58200002 4288308066
0.37474558 -0.033763062 0.58200002 4288307814
0.37538218 -0.032482512 0.583 4288769646
0.37601903 -0.031197438 0.58399999 4289494144
0.37665606 -0.029907836 0.58499998 4289626502
0.37718958 -0.079403147 0.583 4278190080
0.37717357 -0.078060694 0.583 4284175703
0.37651089 -0.076586798 0.58200002 4283843911
0.37520167 -0.074988365 0.57999998 4284039745
0.37518656 -0.073653258 0.57999998 4284236352
0.37387809 -0.07206893 0.57800001 4284169274
0.37321681 -0.070616327 0.57700002 4284299063
0.37190902 -0.069048382 0.57499999 4284430390
0.37124836 -0.067607552 0.574 4284494900
0.37123483 -0.066286936 0.574 4284493616
0.3705748 -0.064853273 0.57300001 4284493868
0.36991507 -0.063424326 0.57200003 4284559148
0.36990234 -0.062108688 0.57200003 4284756525
0.36988986 -0.060793165 0.57200003 4285216045
0.36987761 -0.059477758 0.57200003 4285281066
0.36986566 -0.058162466 0.57200003 4285544240
0.37050056 -0.056946665 0.57300001 4285609779
0.37113562 -0.055726372 0.574 4285806646
0.37177089 -0.054501586 0.57499999 4286004025
0.37240639 -0.053272311 0.57599998 4286332990
0.3723956 -0.051948354 0.57599998 4286530369
0.37303159 -0.050712384 0.57700002 4286793543
0.37237474 -0.04930073 0.57599998 4286860620
0.37236464 -0.047977056 0.57599998 4286860620
0.37235484 -0.046653483 0.57599998 4287124051
0.37234521 -0.045329995 0.57599998 4287518809
0.37233588 -0.044006594 0.57599998 4287584602
0.37232676 -0.042683277 0.57599998 4287584602
0.37231785 -0.041360047 0.57599998 4287716442
0.37295559 -0.040106412 0.57700002 4287782235
0.37294719 -0.038781043 0.57700002 4287979101
0.37423167 -0.037585575 0.579 4288308064
0.37486997 -0.03631838 0.57999998 4288373857
0.37550846 -0.035046667 0.58099997 4288439398
0.37614724 -0.033770435 0.58200002 4288505706
0.37678617 -0.032489672 0.583 4288967027
0.37742528 -0.031204386 0.58399999 4290152074
0.37925178 -0.079555601 0.58399999 4278190080
0.37858608 -0.078076631 0.583 4286808706
0.37792075 -0.076602422 0.58200002 4284832350
0.37725571 -0.075132966 0.58099997 4284238416
0.37659103 -0.073668264 0.57999998 4284040007
0.37527743 -0.072083607 0.57800001 4284235587
0.37526271 -0.070753112 0.57800001 4284563521
0.37394977 -0.069182537 0.57599998 4284693821
0.37328649 -0.067739114 0.57499999 4284561976
0.37262347 -0.066300429 0.574 4284561206
0.37196079 -0.064866476 0.57300001 4284692279
0.37194753 -0.063548148 0.57300001 4284888372
0.37128547 -0.062121347 0.57200003 4284757040
0.37127274 -0.060805567 0.57200003 4284888622
0.37126029 -0.059489902 0.57200003 4285084972
0.37189716 -0.058276057 0.57300001 4285545010
0.37253422 -0.057057723 0.574 4285609779
0.37317148 -0.055834901 0.57499999 4285872953
0.37316 -0.054512784 0.57499999 4286267197
0.37379774 -0.053283282 0.57599998 4286267197
0.37378672 -0.051959071 0.57599998 4286596676
0.37442496 -0.050722878 0.57700002 4286662471
0.3737655 -0.04931096 0.57599998 4286926413
0.37375525 -0.047987048 0.57599998 4287124305
0.37374526 -0.046663228 0.57599998 4287453016
0.37373552 -0.045339506 0.57599998 4287453786
0.37372595 -0.044015869 0.57599998 4287453018
0.37371668 -0.042692315 0.57599998 4287847774
0.37370765 -0.04136885 0.57599998 4288045407
0.37434766 -0.040114991 0.57700002 4288045407
0.37433907 -0.038789392 0.57700002 4288242786
0.37497947 -0.037528794 0.57800001 4288308064
0.3756201 -0.036263678 0.579 4288439650
0.37690961 -0.035054378 0.58099997 4288506474
0.37755066 -0.03377793 0.58200002 4288769394
0.37819189 -0.032496948 0.583 4289494144
0.37933248 -0.076618329 0.58200002 4285887604
0.3786647 -0.075148553 0.58099997 4284569180
0.37799734 -0.073683538 0.57999998 4284698967
0.3773303 -0.072223276 0.579 4284696400
0.37666363 -0.070767768 0.57800001 4284827208
0.37534562 -0.069196865 0.57599998 4284695107
0.37467963 -0.067753144 0.57499999 4284891202
0.37466553 -0.06642969 0.57499999 4284889917
0.37400016 -0.064993136 0.574 4284889917
0.37398666 -0.063672245 0.574 4285019958
0.37332189 -0.062242854 0.57300001 4285086265
0.37330896 -0.060924508 0.57300001 4285152058
0.37394771 -0.059710305 0.574 4285414455
0.37393531 -0.058389902 0.574 4285479476
0.37457454 -0.057169031 0.57499999 4285874236
0.37521398 -0.055943672 0.57599998 4286005311
0.37520233 -0.054619003 0.57599998 4286399299
0.37584224 -0.053386968 0.57700002 4286399297
0.37583107 -0.052060213 0.57700002 4286531655
0.3758201 -0.050733559 0.57700002 4286860620
0.3758094 -0.049407002 0.57700002 4287189585
0.37579894 -0.048080545 0.57700002 4287387477
0.37513745 -0.046673153 0.57599998 4287453786
0.37512755 -0.045349177 0.57599998 4287453786
0.37511787 -0.044025302 0.57599998 4287782753
0.37510842 -0.042701509 0.57599998 4287913567
0.37509921 -0.041377801 0.57599998 4287979360
0.37574148 -0.04012372 0.57700002 4288045407
0.37573275 -0.038797881 0.57700002 4288374372
0.37637544 -0.037537064 0.57800001 4288308579
